ply
format ascii 1.0
comment Author: CloudCompare (TELECOM PARISTECH/EDF R&D)
obj_info Generated by CloudCompare!
element vertex 1874
property float x
property float y
property float z
property uchar red
property uchar green
property uchar blue
end_header
2.99 -0.54 2.37 18 18 18 
1.4 0.47 2.79 92 92 92 
3.6 2.29 0.64 30 30 30 
2.4 2.46 5.43 6 6 6 
1.45 -1.85 0.84 41 41 41 
3.69 2.34 3.16 52 52 52 
1.42 0.28 2.04 131 131 131 
2.38 -0.95 0.35 22 22 22 
3.72 0.19 1.15 64 64 64 
3.33 -0.34 2.6 92 92 92 
2.86 3.38 2.6 248 248 248 
2.77 3.26 5.19 255 255 255 
2.23 -1.35 3.63 11 11 11 
4.27 0.64 1.61 108 108 108 
2.64 1.68 -0.34 41 41 41 
1.78 0.09 -0.29 42 42 42 
1.05 -1.81 4.45 14 14 14 
0.05 -1.2 4.15 255 255 255 
1.49 -0.75 4.35 18 18 18 
1.22 -2.19 5.31 19 19 19 
0.61 -1.62 -0.28 41 41 41 
2.37 -1.13 1.75 7 7 7 
1.47 0.29 2.94 147 147 147 
3.8 2.39 2.94 65 65 65 
3.62 0.03 0.58 73 73 73 
3.96 1.99 0.8 102 102 102 
2.16 -0.08 3.15 55 55 55 
2.71 -0.82 2.91 16 16 16 
3.47 2.86 3.65 25 25 25 
1.29 -2.08 3.9 10 10 10 
2.09 -1.47 1.34 21 21 21 
2.53 3.33 5.29 14 14 14 
2.53 3.47 1.15 108 108 108 
0.21 1.09 2.14 7 7 7 
4.01 0.47 0.66 67 67 67 
0.39 -1.48 0.69 50 50 50 
1.39 0.13 -0.29 35 35 35 
3.67 2.07 -0.03 50 50 50 
1.81 -1.73 2.62 50 50 50 
3.26 -0.22 0.95 74 74 74 
0.49 0.73 2.94 9 9 9 
1.67 1.06 -0.28 33 33 33 
3.04 3.21 0.75 94 94 94 
3.49 -0.01 1.06 76 76 76 
2.76 -0.77 2.9 23 23 23 
3.88 1.98 -0.06 39 39 39 
2.83 -0.89 3.88 23 23 23 
3.03 3.23 2.74 187 187 187 
2.75 0.9 -0.32 68 68 68 
3.21 -0.33 1 92 92 92 
1.32 -2 0.99 34 34 34 
0.65 -1.8 2.23 7 7 7 
4.1 2.07 1.43 175 175 175 
0.77 2.07 5.48 14 14 14 
0.68 2.16 5.22 14 14 14 
3.5 2.42 3.26 30 30 30 
1.79 -1.7 1.98 111 111 111 
1.65 -1.68 1.41 13 13 13 
1.24 -0.75 4.39 19 19 19 
1.65 2.25 2.76 11 11 11 
1.38 -1.96 1.33 37 37 37 
3.48 2.73 0.95 159 159 159 
2.54 3.45 2.01 204 204 204 
2.53 3.46 3.06 139 139 139 
1.79 -1.55 0.99 17 17 17 
2.52 2.63 -0.3 32 32 32 
4.23 0.62 0.93 62 62 62 
2.94 -0.7 2.11 46 46 46 
0.39 1.36 0.06 55 55 55 
1.28 -2.01 2.77 12 12 12 
1.34 -0.62 4.4 21 21 21 
3.35 2.8 3.56 27 27 27 
3.19 -0.32 0.41 34 34 34 
3.69 0.04 1.83 37 37 37 
1.29 -1.96 0.68 100 100 100 
3.03 3.48 5.29 31 31 31 
1.93 1.38 -0.3 41 41 41 
1.61 2.54 2 15 15 15 
3.39 2.92 2.17 255 255 255 
3.83 2.43 2.96 54 54 54 
4.32 0.77 -0.04 52 52 52 
2.2 2.65 -0.35 21 21 21 
2.98 3.32 1.66 192 192 192 
3.01 3.33 1.7 196 196 196 
0.62 1.05 -0.28 25 25 25 
1.49 -1.79 1.29 4 4 4 
0.41 -1.09 -0.29 16 16 16 
3 3.53 5.24 218 218 218 
3.11 -0.5 3.96 142 142 142 
3.47 2.76 3.52 20 20 20 
2.46 2.05 4.3 18 18 18 
1.7 1.86 -0.33 29 29 29 
1.44 -1.82 1.13 40 40 40 
2.7 -0.78 1.23 85 85 85 
0.4 -1.52 1.2 15 15 15 
3.65 2.42 3.29 34 34 34 
3.47 -0.16 1.24 68 68 68 
3.06 -0.41 1.49 78 78 78 
2.19 -1.17 2.17 16 16 16 
3.5 2.71 0.18 39 39 39 
2.26 -1.28 0.73 19 19 19 
3.28 -0.26 1.4 77 77 77 
2.86 3.41 1.07 146 146 146 
3.11 2.74 4.29 20 20 20 
2.42 2.81 -0.33 23 23 23 
4.78 1.12 1.79 155 155 155 
1.81 1.08 -0.3 37 37 37 
3.14 -0.53 2.55 102 102 102 
3 3.23 0.4 79 79 79 
3.53 2.68 0.53 108 108 108 
2.61 -0.83 1.14 6 6 6 
2.61 -0.94 -0.16 8 8 8 
2.62 3.55 2.63 29 29 29 
4.11 0.43 1.71 62 62 62 
3.18 -0.51 2.96 13 13 13 
3.86 0.24 1 59 59 59 
2.07 -1.41 0.24 15 15 15 
3.09 3.21 3.23 136 136 136 
2.58 3.3 1.74 140 140 140 
1.52 0.19 2.15 112 112 112 
2.31 1.59 -0.34 49 49 49 
3.21 3.03 1.6 218 218 218 
2.84 -0.51 -0.11 24 24 24 
0.63 1.01 -0.28 24 24 24 
3.06 -0.55 1.3 80 80 80 
1.5 1.26 -0.29 34 34 34 
1.91 -1.06 2.92 4 4 4 
2.07 -1.32 3.53 17 17 17 
2.26 -1.24 0.42 19 19 19 
2.75 3.39 5.45 13 13 13 
4.16 1.7 0.43 54 54 54 
1.56 0.51 2.68 84 84 84 
1.21 -1.99 0.91 5 5 5 
4.38 0.73 1.01 77 77 77 
0.88 -1.95 1.01 40 40 40 
2.7 -0.93 0.93 8 8 8 
2.8 3.4 4.36 8 8 8 
1.56 -1.7 0.61 10 10 10 
2.57 3.41 5.12 10 10 10 
1.55 -0.57 5.69 13 13 13 
1.9 2.13 2.99 85 85 85 
4.19 0.58 1.17 70 70 70 
3.04 -0.13 -0.36 56 56 56 
1.98 -0.33 -0.31 31 31 31 
1.29 1.27 -0.28 30 30 30 
3.03 -0.48 2.33 94 94 94 
1.57 -1.79 1.61 10 10 10 
2.05 0 3.63 80 80 80 
0.9 -1.84 0.85 40 40 40 
3.75 2.42 -0.18 55 55 55 
3.32 2.81 0.34 57 57 57 
4.1 0.48 1.32 64 64 64 
1.44 -1.6 -0.25 3 3 3 
0.5 -1.5 -0.3 17 17 17 
0.99 -1.86 1.04 41 41 41 
2.42 -1.13 2.72 12 12 12 
3.98 0.38 0.65 56 56 56 
4.14 2.03 1.57 188 188 188 
1.84 -0.38 -0.28 43 43 43 
1.32 -2.23 5.25 12 12 12 
2.65 1.78 -0.32 38 38 38 
3.82 0.26 0.22 93 93 93 
0.87 -1.97 1.03 39 39 39 
2.31 2.09 -0.3 50 50 50 
3.24 2.99 4.04 29 29 29 
3.07 -0.48 0.98 81 81 81 
2.66 3.28 0.13 44 44 44 
4.78 1.11 1.78 155 155 155 
4.78 1.11 1.77 153 153 153 
3.12 0.48 -0.36 59 59 59 
1.72 -1.54 0.84 19 19 19 
3.96 1.92 0.53 44 44 44 
1.58 0.52 3.42 125 125 125 
3.18 3.11 2.77 113 113 113 
3.63 0.05 1.03 65 65 65 
0.85 -1.91 1.1 43 43 43 
4.06 2.1 0.91 143 143 143 
4.78 1.11 1.68 72 72 72 
1 1.97 -0.27 51 51 51 
4.78 1.11 1.66 104 104 104 
3.67 2.53 3.29 38 38 38 
2.35 3.21 5.48 15 15 15 
2.67 -0.75 0.53 69 69 69 
4.78 1.11 1.62 82 82 82 
3.57 2.77 3.32 35 35 35 
2.2 1.56 2.96 13 13 13 
1.35 0.62 -0.29 23 23 23 
4.48 1.63 -0.26 35 35 35 
1.5 -0.58 2.74 12 12 12 
3.38 2.86 0.73 128 128 128 
2.3 2.35 5.47 8 8 8 
0.44 -1.51 -0.03 47 47 47 
0.54 -1.64 0.81 37 37 37 
2.08 0.71 -0.3 41 41 41 
2.75 2.64 -0.34 27 27 27 
1.91 -0.67 4.35 8 8 8 
2.52 3.55 1.03 82 82 82 
2.79 1.16 -0.34 55 55 55 
3.51 2.74 1.07 155 155 155 
2.81 3.43 5.23 16 16 16 
2.35 -1.13 1.75 10 10 10 
1.8 -0.31 3.17 14 14 14 
3.54 0.02 0.78 71 71 71 
2.32 -1.07 0.26 19 19 19 
2.91 1.68 -0.36 36 36 36 
1.24 -0.81 -0.28 25 25 25 
2.59 2.65 -0.33 27 27 27 
1.36 -1.21 -0.29 21 21 21 
1.6 2.53 2.44 44 44 44 
1.75 1.4 2.79 8 8 8 
0.9 -1.86 0.85 41 41 41 
1.61 -1.76 0.65 11 11 11 
1.19 0.39 -0.27 31 31 31 
1.84 -1.44 1.76 3 3 3 
2.95 -0.58 2.39 5 5 5 
3.25 3.04 1.97 231 231 231 
1.41 -0.55 -0.27 46 46 46 
1.58 -1.89 1.35 5 5 5 
0.95 1.87 1.37 106 106 106 
2.64 2.93 -0.31 24 24 24 
1.38 2.55 5 23 23 23 
2.88 -0.83 3.65 67 67 67 
0.78 -2.08 3.8 10 10 10 
2.1 -1.44 3.04 13 13 13 
3.2 3 0.29 69 69 69 
1.52 -1.22 -0.28 22 22 22 
2.86 -0.53 -0.07 25 25 25 
3.41 2.54 3.39 23 23 23 
2.57 2.04 4.36 24 24 24 
3.61 2.62 2.6 34 34 34 
3.24 3.06 2.56 43 43 43 
3.93 2.05 0.51 94 94 94 
3.49 2.7 0.42 99 99 99 
0.89 -1.89 3.9 15 15 15 
1.33 -0.95 -0.29 27 27 27 
1.9 2.86 -0.34 41 41 41 
4.78 1.1 1.57 111 111 111 
3.62 2.59 3.31 26 26 26 
2.63 0.89 -0.3 61 61 61 
1.44 1.06 5.75 129 129 129 
1.53 0.63 2.77 53 53 53 
3.18 -0.45 1.65 47 47 47 
1.72 -1.25 -0.33 23 23 23 
2.25 -1.28 0.75 16 16 16 
3.42 2.8 4.35 10 10 10 
1.34 -2.19 5.3 8 8 8 
1.9 1.9 -0.31 47 47 47 
1.64 2.47 2.78 16 16 16 
2.06 -1.31 2.58 17 17 17 
3.2 -0.43 1.97 63 63 63 
1.75 -1.59 0.53 11 11 11 
0.69 -1.23 4.37 16 16 16 
3.56 2.63 0.71 51 51 51 
4.78 1.1 1.36 127 127 127 
2.39 1.59 2.97 15 15 15 
4.48 1.09 -0.39 37 37 37 
3.09 3.11 1.07 140 140 140 
1.75 -0.81 2.74 8 8 8 
1.78 -1.59 1.65 28 28 28 
3.6 0.75 -0.35 54 54 54 
2.87 3.45 1.43 108 108 108 
3.91 2 0.16 60 60 60 
3.57 -0.04 0.81 65 65 65 
4.78 1.09 1.59 86 86 86 
0.57 -1.73 2.23 15 15 15 
3.32 2.92 4.37 27 27 27 
2.74 3.47 5.06 12 12 12 
1.42 0.19 3.64 170 170 170 
3.45 -0.29 3.19 35 35 35 
1.66 -1.67 2.52 83 83 83 
3.33 2.89 3.99 21 21 21 
3.27 3.04 1.71 201 201 201 
2.18 1.72 4.36 15 15 15 
3.48 -0.28 2.93 27 27 27 
0.42 -1.5 0.63 4 4 4 
2.1 2.06 -0.29 51 51 51 
4.45 1.34 -0.31 29 29 29 
4.78 1.09 1.43 89 89 89 
2.62 -0.88 1.79 51 51 51 
3.79 2.45 3.14 59 59 59 
4.78 1.08 1.7 170 170 170 
1.84 -0.27 3.14 10 10 10 
2.53 3.48 1.85 149 149 149 
1.33 -1.95 1.77 113 113 113 
1.83 0.17 -0.31 43 43 43 
1.23 1.08 -0.28 39 39 39 
1.35 1.82 -0.3 36 36 36 
2.43 1.9 4.26 14 14 14 
3.28 2.93 2.19 29 29 29 
4.08 0.54 -0.16 85 85 85 
-0.03 -1.12 3 19 19 19 
3.46 -0.26 2.83 122 122 122 
3.76 0.23 0.72 67 67 67 
2.87 3.43 1.21 163 163 163 
1.83 0.25 -0.3 42 42 42 
2.85 -0.62 1.71 88 88 88 
2.96 -0.73 2.61 17 17 17 
4 2.17 1.33 176 176 176 
1.6 -1.95 3.82 7 7 7 
3.63 0.01 1.01 68 68 68 
3.77 0.25 -0.03 99 99 99 
2.71 1.04 -0.3 61 61 61 
2.66 0.75 -0.31 67 67 67 
3.65 2.55 1.46 192 192 192 
2.61 -0.8 0.06 6 6 6 
2.5 -1.04 0.96 27 27 27 
3.7 0.71 -0.36 49 49 49 
2.12 -0.06 5.49 8 8 8 
2.15 2.35 -0.33 39 39 39 
1.87 -0.84 -0.32 34 34 34 
3.72 2.09 0.28 34 34 34 
4.46 1.67 1.24 152 152 152 
1.41 -1.92 0.54 28 28 28 
4.46 1.68 1.39 171 171 171 
1.58 -0.54 4.38 18 18 18 
2.36 -1.07 0.54 23 23 23 
1.55 0.64 2.91 50 50 50 
0.2 -1.37 3.16 17 17 17 
3.09 3.18 1.7 206 206 206 
2.72 0.91 -0.32 60 60 60 
4.77 1.23 0.09 39 39 39 
2.38 -1.08 0.69 23 23 23 
4.47 1.18 0.18 41 41 41 
2.11 -1.28 2.73 20 20 20 
3.63 2.26 0.55 50 50 50 
3.02 3.2 0.34 75 75 75 
3.02 -0.46 0.25 35 35 35 
1.71 1.31 -0.31 34 34 34 
3.96 2.22 1.83 209 209 209 
1.86 -0.55 4.33 17 17 17 
2.33 2.75 -0.33 26 26 26 
1.86 -0.19 -0.31 40 40 40 
4.77 1.22 1.45 142 142 142 
2.11 -0.18 2.78 31 31 31 
3 -0.68 3.85 255 255 255 
2.43 0.84 -0.32 48 48 48 
1.63 -0.15 -0.29 36 36 36 
1.81 1.36 -0.3 32 32 32 
1.57 0.41 2.91 109 109 109 
4.32 0.7 0.41 52 52 52 
0.66 -1.69 -0.21 42 42 42 
3.13 2.89 0.82 92 92 92 
3.26 3.1 2.8 51 51 51 
2.01 -1.33 3.33 11 11 11 
4.57 1.36 0.17 67 67 67 
3.2 -0.39 0.89 71 71 71 
4.5 1.63 1.33 174 174 174 
1.99 1.5 4.36 12 12 12 
3.15 3.07 0.48 83 83 83 
4.12 2.01 0.57 35 35 35 
2.61 -0.78 0.32 8 8 8 
3.16 -0.45 1.38 75 75 75 
2.67 -0.73 0.86 73 73 73 
3.23 -0.34 0.49 66 66 66 
1.2 -2.06 2.36 2 2 2 
3.01 3.22 0.66 90 90 90 
3.73 2.08 0.33 66 66 66 
4.77 1.22 1.2 125 125 125 
1.77 -1.74 2.53 60 60 60 
3.28 3.01 3.06 58 58 58 
2.16 -1.26 0.23 16 16 16 
2.72 -0.9 3.93 33 33 33 
1.98 -1.43 0.58 18 18 18 
1.18 -1.97 3.9 13 13 13 
2.16 1.9 -0.31 73 73 73 
3.57 2.74 3.26 33 33 33 
1.36 -1.93 1.24 40 40 40 
3.08 3.26 1.53 184 184 184 
2.08 -1.7 3.06 51 51 51 
2.92 -0.63 3.28 26 26 26 
1.42 1.51 -0.27 26 26 26 
4.77 1.22 1 123 123 123 
1.92 1.32 -0.32 45 45 45 
4.77 1.22 0.96 126 126 126 
2.63 -0.83 -0.24 17 17 17 
4.11 0.56 0.45 62 62 62 
1.84 2.01 -0.28 36 36 36 
3.76 2.44 3.33 35 35 35 
1.74 1.42 -0.29 30 30 30 
0.39 -1.54 1.11 76 76 76 
2.13 -1.03 -0.24 9 9 9 
1.18 -2.03 0.91 40 40 40 
3.17 2.93 0.82 90 90 90 
3.15 -0.59 3.28 47 47 47 
1.22 -2.01 0.94 5 5 5 
1.24 -2.08 3.09 13 13 13 
2.38 -1.1 0.76 22 22 22 
1.65 -0.77 4.53 10 10 10 
1.5 -1.76 1.84 5 5 5 
0.56 0.63 2.77 8 8 8 
1.41 -1.86 2.06 54 54 54 
1.25 -0.56 -0.27 38 38 38 
3.99 2.15 -0.14 34 34 34 
2.76 -0.77 1.2 85 85 85 
2.96 2.62 -0.36 29 29 29 
3.43 -0.28 3.23 17 17 17 
1.55 0.93 2.6 45 45 45 
4.23 1.95 0.98 146 146 146 
2.69 -0.59 0.04 44 44 44 
2 3 1.34 115 115 115 
3.92 2.25 3.06 117 117 117 
3.09 3.13 0.49 89 89 89 
2.82 -0.83 2.88 24 24 24 
2.89 -0.66 3.61 97 97 97 
4.77 1.22 0.15 41 41 41 
4.02 1.16 -0.37 28 28 28 
3.75 2.55 1.85 225 225 225 
0.41 -1.52 1.08 4 4 4 
3.65 0.1 0.2 103 103 103 
4.21 0.56 1.29 62 62 62 
3.23 -0.48 3.5 32 32 32 
1.77 -1.49 -0.35 17 17 17 
2.45 -1.1 3.41 38 38 38 
2.31 -1.18 1.79 6 6 6 
3.06 3.28 2.22 211 211 211 
4.77 1.21 1.73 177 177 177 
3.11 -0.36 1.03 112 112 112 
2.81 0.27 -0.32 53 53 53 
3.58 2.66 2.14 254 254 254 
1.77 -1.72 2.59 56 56 56 
3.93 2.04 0.33 34 34 34 
2.15 -0.5 -0.34 33 33 33 
1.55 -0.45 5.67 12 12 12 
3.22 2.6 -0.24 79 79 79 
2.07 1.34 -0.3 41 41 41 
2.54 3.48 0.9 122 122 122 
1.37 -1.86 -0.18 28 28 28 
2.45 -0.76 -0.32 34 34 34 
3.2 2.98 0.33 77 77 77 
3.94 0.8 -0.37 44 44 44 
2.44 3.3 5.41 19 19 19 
0.41 -1.48 0.29 42 42 42 
2.76 -0.75 0.93 76 76 76 
3.52 2.66 1.31 183 183 183 
3.98 0.44 0.2 97 97 97 
3.11 -0.49 3.3 32 32 32 
3.24 2.99 1.35 165 165 165 
0.44 1.1 2.97 6 6 6 
3.23 -0.36 1.02 78 78 78 
2 2.15 -0.32 49 49 49 
4.35 1.26 -0.33 55 55 55 
3.18 3.08 2.31 39 39 39 
2.66 -0.51 -0.26 27 27 27 
2.75 3.3 5.48 13 13 13 
1.62 -1.94 0.77 5 5 5 
2.86 -0.86 2.9 22 22 22 
2.74 0.79 -0.32 60 60 60 
1.59 0.49 -0.27 39 39 39 
1.49 0.25 2.55 39 39 39 
2.7 -0.83 1.61 93 93 93 
4.77 1.21 1.29 135 135 135 
2.12 -0.16 2.83 56 56 56 
0.69 -1.47 -0.3 25 25 25 
4.54 0.91 0.94 122 122 122 
4.39 1.76 1.43 176 176 176 
0.26 1.17 2.52 6 6 6 
2.3 1.76 2.84 24 24 24 
3.85 1.88 -0.28 70 70 70 
3.34 2.88 2.18 60 60 60 
2.44 2.59 -0.35 29 29 29 
3.37 -0.34 3.32 19 19 19 
1.74 -1.56 1.76 5 5 5 
3.04 -0.57 1.53 101 101 101 
3.15 -0.55 3.15 54 54 54 
2.11 -1.29 2.67 21 21 21 
3.2 2.75 0.42 53 53 53 
1.83 0.02 3.63 35 35 35 
3.78 2.43 3.17 49 49 49 
1.57 0.51 1.44 19 19 19 
2.01 1.37 -0.32 35 35 35 
4.08 0.68 -0.38 43 43 43 
0.87 -1.9 1.07 46 46 46 
1.92 -1.59 2.98 34 34 34 
3.5 2.75 3.04 35 35 35 
4.77 1.21 1.03 133 133 133 
1.34 -1.36 -0.3 20 20 20 
3.62 2.12 -0.04 51 51 51 
1.32 -1.86 0.55 29 29 29 
1.3 0.36 3.65 156 156 156 
3.83 0.36 -0.34 70 70 70 
3.82 2.45 3.11 61 61 61 
4.04 1.81 0.62 28 28 28 
4.77 1.21 0.95 111 111 111 
3.46 2.82 3.49 27 27 27 
2.19 -1.17 1.87 11 11 11 
0.45 1.19 -0.26 21 21 21 
1.06 -1.93 2.16 5 5 5 
2.71 3.35 3.41 255 255 255 
2.41 3.2 5.34 5 5 5 
2.26 1 -0.32 44 44 44 
0.89 1.24 -0.27 29 29 29 
2.31 -0.98 -0.27 5 5 5 
2.48 -1.06 3.5 14 14 14 
3.89 0.23 1.78 71 71 71 
2.88 2.5 4.66 6 6 6 
2.83 -0.65 0.8 73 73 73 
0.44 1.73 5.29 12 12 12 
3.14 3.15 1.3 161 161 161 
1.79 -1.59 1.4 22 22 22 
2.85 -0.73 0.96 69 69 69 
2.03 -0.15 -0.29 37 37 37 
3.02 3.4 4.89 5 5 5 
4.26 1.87 0.25 71 71 71 
3.76 1.02 -0.37 43 43 43 
1.21 -0.24 -0.27 38 38 38 
0.92 -2.01 2.49 5 5 5 
2.62 3.48 5.33 11 11 11 
2.84 -0.91 3.82 41 41 41 
3.89 2.25 -0.25 43 43 43 
1.85 0.37 -0.28 47 47 47 
1.63 0.47 1.4 23 23 23 
2.85 2.4 4.39 26 26 26 
0.94 -1.83 1.35 46 46 46 
2.32 3.09 5.37 5 5 5 
3.6 1.76 -0.37 30 30 30 
1.29 -1.3 -0.28 19 19 19 
4.03 1.74 0.08 49 49 49 
2.63 3.3 0.55 77 77 77 
2.27 -1.04 -0.33 6 6 6 
2.92 2.67 -0.33 24 24 24 
1.74 2.47 -0.3 34 34 34 
4.21 1.96 0.97 166 166 166 
4.57 1.3 0.12 64 64 64 
4.77 1.21 0.53 48 48 48 
2.58 -0.9 0.57 8 8 8 
3.08 -0.47 3.31 29 29 29 
3.1 3.21 1.33 165 165 165 
2.19 3.16 -0.35 49 49 49 
2.17 -1.38 1.14 20 20 20 
1.21 -0.56 -0.29 32 32 32 
1.51 -1.85 2.98 35 35 35 
2.98 3.26 1.62 203 203 203 
3.17 3.11 5.46 4 4 4 
1 -2 3.89 14 14 14 
1.21 -1.94 1.17 4 4 4 
3.2 1.47 -0.36 27 27 27 
3.59 2.57 0.29 75 75 75 
2.4 -0.37 -0.3 36 36 36 
1.87 -1.47 0.65 18 18 18 
1.38 0.86 2.84 10 10 10 
2.38 0.38 -0.3 48 48 48 
2.79 3.39 5.66 11 11 11 
1.31 -2.01 0.94 34 34 34 
1.72 -1.47 -0.28 2 2 2 
3.34 3.03 2.18 255 255 255 
1.87 -1.63 -0.29 7 7 7 
3.4 0.02 -0.38 59 59 59 
3.47 -0.27 3.39 26 26 26 
3.23 2.94 -0.06 64 64 64 
3.03 -0.57 1.22 77 77 77 
4.77 1.21 0.17 41 41 41 
3.33 -0.26 1.33 84 84 84 
3.28 3 3.69 29 29 29 
1.97 1.96 5.65 6 6 6 
4.24 0.65 0.77 59 59 59 
2.68 -0.8 2.03 88 88 88 
2.61 3.5 0.32 48 48 48 
1.97 -1.56 2.69 24 24 24 
2.92 0.68 -0.31 61 61 61 
2.81 -0.09 -0.33 50 50 50 
3.05 2.98 0.46 61 61 61 
4.5 1.6 -0.35 26 26 26 
3.12 0.78 -0.33 47 47 47 
1.18 -2.01 4.1 12 12 12 
3.96 0.36 0.63 63 63 63 
4.32 0.76 0.34 46 46 46 
1.75 -1.64 0.72 11 11 11 
1.63 0.34 2.76 119 119 119 
3.23 -0.4 1.45 75 75 75 
4.12 1.18 -0.37 252 252 252 
3.28 -0.44 3.17 14 14 14 
0.91 -1.96 0.83 38 38 38 
3.71 2.45 0.93 143 143 143 
1.6 2.44 -0.33 33 33 33 
2.71 -0.89 0.93 10 10 10 
2.62 2.55 5.59 9 9 9 
1.79 2 -0.32 37 37 37 
0.23 0.98 2.69 15 15 15 
1.12 -0.32 2.98 13 13 13 
3.03 3.22 1.59 196 196 196 
0.57 1.33 -0.28 29 29 29 
2.54 0.74 -0.34 43 43 43 
3.09 -0.59 2.55 11 11 11 
1.32 0.27 1.7 117 117 117 
4.4 1.78 1.83 192 192 192 
1.9 -0.18 2.89 16 16 16 
3.65 0.66 -0.35 55 55 55 
3.43 -0.3 3.18 31 31 31 
2.58 -0.88 0.39 12 12 12 
1.81 -1.51 2.6 28 28 28 
4.77 1.2 1.43 141 141 141 
1.01 -1.91 0.67 33 33 33 
0.56 1.96 5.2 10 10 10 
3.03 0.76 -0.33 63 63 63 
4.39 1.76 0.67 103 103 103 
1 -1.93 1.28 40 40 40 
3.37 -0.25 1.64 96 96 96 
1.14 -1.98 1.17 25 25 25 
3.68 0.15 0.15 103 103 103 
3.19 3.1 2.66 61 61 61 
1.88 -0.59 3.67 16 16 16 
1.62 0.81 2.96 23 23 23 
2.73 -0.85 1.37 19 19 19 
3.4 -0.28 3.16 38 38 38 
2.33 -0.06 2.94 41 41 41 
2.69 -0.8 2.43 9 9 9 
2.98 3.49 5.18 133 133 133 
2.92 -0.08 -0.33 63 63 63 
3.22 3.13 5.06 11 11 11 
4.2 1.94 -0.11 53 53 53 
1.45 -1.79 1.09 6 6 6 
3.41 2.81 2.83 43 43 43 
2.77 -0.94 3.35 30 30 30 
4.01 1.8 0.58 25 25 25 
1.77 -0.28 3.18 17 17 17 
1.38 -1.83 0.62 34 34 34 
2.75 -0.52 -0.35 36 36 36 
2.9 -0.24 -0.33 59 59 59 
3.1 -0.54 1.61 89 89 89 
1.01 -1.89 5.46 17 17 17 
1.43 -0.63 3.15 8 8 8 
4.3 0.69 0.86 61 61 61 
1.47 0.33 3.56 179 179 179 
0.68 -1.87 -0.06 50 50 50 
1.37 0.49 2.22 26 26 26 
1.76 2.33 -0.31 36 36 36 
1.43 2.36 -0.32 14 14 14 
1.88 0.79 -0.3 38 38 38 
0.97 -1.99 3.7 32 32 32 
0.68 -1.91 3.96 10 10 10 
4.45 1.7 1.11 161 161 161 
2.81 -0.83 2.86 24 24 24 
2.99 -0.15 -0.36 59 59 59 
1.85 -1.5 1.33 23 23 23 
2.66 3.14 -0.29 50 50 50 
2.86 -0.69 3.44 86 86 86 
4.38 0.78 0.63 62 62 62 
4.06 0.45 0.33 89 89 89 
3.29 -0.35 1.99 66 66 66 
2.03 -1.38 3.87 13 13 13 
3.03 3.27 0.43 74 74 74 
1.46 1.16 -0.27 34 34 34 
0.68 -0.91 -0.28 19 19 19 
1.91 -0.8 -0.3 36 36 36 
3.13 -0.64 3.62 35 35 35 
3.4 2.83 0.59 48 48 48 
0.55 1.19 -0.28 19 19 19 
1.43 -0.78 -0.3 30 30 30 
3.51 2.67 1.01 166 166 166 
3.06 -0.51 1.25 98 98 98 
4.19 1.98 1.2 159 159 159 
3.57 0.02 0.07 127 127 127 
3.58 0.05 -0.21 84 84 84 
3.18 3.21 2.83 40 40 40 
3.59 0.03 0.96 79 79 79 
2.62 3.31 1.2 146 146 146 
2.6 3.33 -0.09 45 45 45 
3.24 3.01 0.55 101 101 101 
3.05 3.03 -0.37 25 25 25 
1.25 -1.94 0.54 31 31 31 
4.77 1.2 0.73 98 98 98 
1.27 -1.92 0.58 36 36 36 
3.03 -0.65 2.64 10 10 10 
0.5 0.98 -0.27 27 27 27 
0.39 -1.48 0.76 35 35 35 
0.64 -1.85 3.93 23 23 23 
4.31 1.81 0.96 161 161 161 
3.23 -0.39 3.64 40 40 40 
3.1 2.9 0.44 53 53 53 
2.97 3.31 2.56 110 110 110 
1.79 -1.75 2.97 35 35 35 
2.26 0.55 -0.32 46 46 46 
3.88 2.05 0.51 49 49 49 
3.24 3 0.54 83 83 83 
3.34 -0.24 1.32 80 80 80 
2.73 -0.87 1.5 23 23 23 
2.16 -1.39 1.15 19 19 19 
2.26 -1.33 3.58 14 14 14 
4.4 0.77 0.95 30 30 30 
1.08 -1.93 2.56 6 6 6 
2.68 3.27 1.76 170 170 170 
3.46 2.45 3.3 25 25 25 
2.64 3.3 4.01 20 20 20 
2.91 3.44 4.33 255 255 255 
1.5 0.16 3.66 40 40 40 
2.21 1.64 4.3 11 11 11 
2.66 -0.89 -0.13 5 5 5 
3.79 2.42 2.59 36 36 36 
2.04 2.67 -0.34 28 28 28 
2.26 3.17 5.52 9 9 9 
2.89 0.22 -0.34 67 67 67 
2.43 3.23 5.69 22 22 22 
2.52 2.07 -0.35 37 37 37 
4.77 1.2 0.39 40 40 40 
2.59 3.44 5.11 14 14 14 
3.83 0.32 -0.28 91 91 91 
2.61 -0.82 0.42 6 6 6 
4.77 1.2 0.29 41 41 41 
3.03 -0.6 1.49 81 81 81 
2.08 -1.45 1.12 19 19 19 
1.5 -1.67 -0.31 4 4 4 
3.54 0.02 0.47 88 88 88 
1.34 1.41 -0.31 22 22 22 
3.13 3.23 5.4 13 13 13 
1.21 1.99 -0.32 25 25 25 
4.19 1.15 -0.42 35 35 35 
2.66 -0.91 3.98 13 13 13 
2.26 1.8 2.88 10 10 10 
1.5 0.21 2.52 48 48 48 
2.87 3.45 1.97 138 138 138 
3.23 3.18 2.76 99 99 99 
4.51 1.21 1.7 182 182 182 
4.77 1.2 0.14 38 38 38 
3.28 -0.36 3.85 86 86 86 
2.72 2.1 4.4 6 6 6 
1.47 2.13 3.85 72 72 72 
1.18 -1.09 4.5 17 17 17 
0.68 -1.8 2.18 41 41 41 
1.16 1.22 5.75 8 8 8 
2.97 -0.63 3.24 27 27 27 
2.79 2.99 -0.33 26 26 26 
2.7 3.26 4.12 168 168 168 
3.08 2.51 4.28 5 5 5 
3.7 2.56 3.18 43 43 43 
1.59 0.38 3.65 36 36 36 
3.31 2.89 0.91 166 166 166 
3.07 3.17 -0.02 81 81 81 
4.45 1.64 0.56 88 88 88 
3.55 2.67 0.33 76 76 76 
3.72 2.58 3.37 30 30 30 
3.81 2.39 1.05 160 160 160 
3.03 -0.51 0.99 82 82 82 
3.31 1.21 -0.35 59 59 59 
4 1.48 -0.41 27 27 27 
1.41 1.45 -0.29 30 30 30 
0.41 1 2.76 6 6 6 
2.58 3.53 -0.12 31 31 31 
4.77 1.19 1.55 70 70 70 
4.77 1.19 1.54 81 81 81 
3.26 2.72 4.39 16 16 16 
2.4 -0.91 0.45 23 23 23 
3.26 2.96 2.94 57 57 57 
3.86 2.33 3.05 78 78 78 
3.98 0.44 -0.14 93 93 93 
3.15 3.12 5.56 7 7 7 
1.47 -0.86 4.33 17 17 17 
2.99 3.27 0.4 80 80 80 
0.58 -1.42 -0.27 19 19 19 
4.19 1.68 -0.12 36 36 36 
4.28 1.9 1.1 156 156 156 
2.68 3.45 1.94 189 189 189 
0.44 -1.47 0.69 5 5 5 
4.57 0.92 1.13 131 131 131 
0.54 1.84 5.47 8 8 8 
0.96 -1.92 0.89 38 38 38 
4.29 1.84 1.32 159 159 159 
1.98 -1.36 3.19 16 16 16 
4.21 0.65 0.8 59 59 59 
2.12 1.96 -0.32 58 58 58 
2.89 -0.65 3.01 15 15 15 
3.2 3.04 0.32 79 79 79 
2.16 -1.48 4.59 8 8 8 
1.55 0.45 2.64 92 92 92 
3.3 -0.52 2.93 22 22 22 
1.69 -1.65 3.07 46 46 46 
3.18 3.17 5.59 48 48 48 
2.73 3.46 1.96 192 192 192 
4.54 1.46 -0.32 18 18 18 
4.05 2.1 1.02 160 160 160 
3.05 0.13 -0.33 60 60 60 
2.33 2.24 5.59 8 8 8 
3.49 2.49 0.14 38 38 38 
2.63 -0.94 3.11 31 31 31 
3.85 2.34 0.12 27 27 27 
0.56 0.88 -0.27 20 20 20 
2.8 3.45 0.58 82 82 82 
2.2 -1.34 0.71 20 20 20 
2.67 1.53 -0.35 45 45 45 
2.79 -0.63 0.73 68 68 68 
3.21 -0.52 3.24 26 26 26 
2.73 3.51 3.08 186 186 186 
2.82 -0.69 1.6 84 84 84 
0.74 -1.89 1.91 58 58 58 
3.79 0.19 0.61 62 62 62 
1.4 0.32 3.68 47 47 47 
2.86 3.39 -0.02 49 49 49 
2.89 2.39 -0.35 26 26 26 
4.77 1.19 1.05 147 147 147 
3.11 -0.5 3.25 39 39 39 
4.57 0.85 1.52 132 132 132 
1.54 -1.85 0.85 3 3 3 
1.42 0.46 2.91 93 93 93 
0.44 0.74 2.78 8 8 8 
2.46 -1.01 0.64 26 26 26 
1.89 -1.46 0.69 17 17 17 
4.01 2.13 0.27 37 37 37 
2.75 3.46 3.17 104 104 104 
3.37 2.95 2.89 56 56 56 
4.42 0.87 -0.29 49 49 49 
3.61 2.71 3.61 24 24 24 
2.01 2.71 -0.33 28 28 28 
3.91 0.31 0.47 73 73 73 
3.25 -0.16 -0.26 83 83 83 
1.46 -0.83 4.33 27 27 27 
2.82 -0.56 0.01 31 31 31 
4.33 1.84 0.1 33 33 33 
2.18 1.87 2.84 10 10 10 
3.2 3.01 0.67 49 49 49 
2.49 3.47 1.66 139 139 139 
3.25 -0.25 0.5 83 83 83 
2.32 0.21 -0.32 45 45 45 
4.77 1.19 0.81 105 105 105 
3.37 3 3.7 32 32 32 
3.23 3.06 1.24 159 159 159 
1.15 -1.27 -0.3 18 18 18 
3.15 -0.6 3.2 30 30 30 
3.08 -0.52 3.24 52 52 52 
3.14 2.66 4.22 14 14 14 
3.95 1.97 0.22 40 40 40 
3.95 2.18 0.71 117 117 117 
3.14 -0.45 3.84 56 56 56 
4.56 1.2 0.95 160 160 160 
4.36 1.77 1.23 163 163 163 
2.94 3.32 -0.34 47 47 47 
4.77 1.19 0.68 81 81 81 
3.89 2.32 3.3 57 57 57 
2.86 -0.67 0.4 29 29 29 
2.41 0.92 -0.3 44 44 44 
0.25 0.95 2.95 8 8 8 
4.21 0.6 1.37 72 72 72 
1.35 1.65 5.61 4 4 4 
1.16 -2.01 1.24 32 32 32 
3.14 3.1 2.44 40 40 40 
1 0.06 2.76 20 20 20 
3.19 3.06 2.3 35 35 35 
2.59 3.53 0.09 29 29 29 
3.17 -0.46 2.08 56 56 56 
3.63 0.09 0.03 102 102 102 
1.09 -0.93 4.37 18 18 18 
0.19 1.66 5.25 12 12 12 
3.97 1.86 0.38 79 79 79 
0.17 1.05 -0.27 15 15 15 
3.2 -0.28 1.12 76 76 76 
3.28 2.98 0.98 138 138 138 
2.4 1.6 2.74 15 15 15 
1.46 0.08 -0.28 35 35 35 
0.49 1.68 4.72 2 2 2 
3.13 0.68 -0.33 62 62 62 
3.78 2.36 0.06 42 42 42 
3.21 -0.37 0.61 66 66 66 
1.05 -1.93 2.61 43 43 43 
1.07 -2 4.03 68 68 68 
3.98 0.39 0.83 57 57 57 
0.38 -1.43 0.31 54 54 54 
2.92 -0.62 0.99 91 91 91 
4.06 2.09 1.77 195 195 195 
2.03 -0.01 -0.29 44 44 44 
4.19 1.15 -0.35 37 37 37 
1.49 0.53 1.62 17 17 17 
3.17 -0.41 1.58 70 70 70 
2.5 1.91 -0.34 38 38 38 
3.6 -0.05 1.75 211 211 211 
4.31 1.81 0.91 163 163 163 
2.82 3.38 5.22 19 19 19 
3.14 -0.52 1.83 60 60 60 
3.05 -0.53 3.7 53 53 53 
2.91 3.36 3.45 99 99 99 
1.2 2.19 4.8 9 9 9 
1.71 -1.18 -0.32 24 24 24 
4.43 0.83 1.27 100 100 100 
3.1 3.19 2.26 38 38 38 
0.74 -1.8 0.42 36 36 36 
1.3 1.35 -0.3 24 24 24 
3.16 3.16 3.09 89 89 89 
2.85 -0.72 3.22 26 26 26 
3.36 -0.18 0.85 75 75 75 
3.72 2.15 0.79 10 10 10 
3.44 0.07 -0.38 67 67 67 
1.8 1.21 4.32 6 6 6 
1.36 0.1 -0.27 44 44 44 
2.99 1.86 -0.35 36 36 36 
1.39 0.51 2.69 76 76 76 
3.02 3.52 4.94 4 4 4 
2.33 -1.16 0.74 20 20 20 
2.86 -0.66 1.39 99 99 99 
3.55 2.37 0.48 77 77 77 
1.85 -1.65 2.68 41 41 41 
4.3 1.5 0.42 65 65 65 
2.27 1.85 4.55 9 9 9 
2.44 3.3 5.38 21 21 21 
2.58 2.46 5.6 6 6 6 
2.69 3.31 1.79 199 199 199 
0.38 -1.56 1.19 48 48 48 
2.54 3.07 -0.33 33 33 33 
4 2.2 1.45 176 176 176 
3.7 2.5 0.54 43 43 43 
1.2 0.57 2.96 8 8 8 
2.93 -0.59 2.36 4 4 4 
0.66 -1.82 -0.1 41 41 41 
2.65 3.43 1.77 68 68 68 
1.41 0.16 -0.29 33 33 33 
0.41 -1.46 -0.2 54 54 54 
3.71 0.12 0.53 75 75 75 
3.14 3.12 0.15 65 65 65 
4.77 1.18 1.53 148 148 148 
3.73 2.43 1.38 178 178 178 
2.85 3.38 0.89 121 121 121 
3.07 3.21 2.48 57 57 57 
3.26 2.96 -0.31 30 30 30 
2.8 1.31 -0.33 41 41 41 
3.88 2.12 0.76 114 114 114 
4.16 0.56 0.7 72 72 72 
2.81 1.71 -0.32 40 40 40 
3.49 2.73 2.68 33 33 33 
1.78 -0.33 3.09 19 19 19 
0.82 -2.05 1.7 61 61 61 
2.23 -0.13 4.37 37 37 37 
3.76 2.55 3.12 46 46 46 
2.3 3.17 5.58 12 12 12 
3.74 2.53 3.1 49 49 49 
1.36 0.24 3.17 121 121 121 
4.77 1.18 1.36 139 139 139 
4.2 1.72 0.8 121 121 121 
3.38 2.86 2.84 39 39 39 
3.62 2.57 3.38 27 27 27 
1.33 -1.91 0.81 33 33 33 
4.45 1.23 -0.29 18 18 18 
2.44 -1.08 0.89 24 24 24 
1.91 -1.46 3.15 19 19 19 
0.69 -1.96 3.92 8 8 8 
1.22 -1.93 0.65 6 6 6 
2.91 -0.8 3.25 29 29 29 
2.12 0.21 -0.32 42 42 42 
2.51 -0.38 -0.34 42 42 42 
3.39 2.91 2.93 49 49 49 
4.77 1.18 1.22 135 135 135 
1.45 1.85 -0.32 38 38 38 
3.61 -0.01 1.06 71 71 71 
0.79 -1.96 1.42 48 48 48 
2.87 -0.72 3.89 169 169 169 
1.26 -0.13 -0.29 35 35 35 
4.77 1.18 1.16 132 132 132 
3.15 2.74 0.16 92 92 92 
1.77 1.23 4.37 12 12 12 
1.58 -0.9 -0.29 31 31 31 
4.53 1.54 0.57 91 91 91 
2.75 -0.83 3.64 61 61 61 
1.95 -1.41 3.6 10 10 10 
2.15 -1.33 0.08 16 16 16 
1.48 -1.43 -0.33 16 16 16 
2.56 -1.02 1.39 26 26 26 
3.86 0.23 0.81 54 54 54 
2.62 3.32 1.66 124 124 124 
0.9 -1.55 -0.31 19 19 19 
1.86 -0.3 -0.32 37 37 37 
2.45 2.44 -0.34 35 35 35 
3.44 2.82 3.6 27 27 27 
2.67 0.46 -0.35 53 53 53 
1.17 -2.05 5.41 8 8 8 
4.37 1.71 1.05 156 156 156 
1.67 0.36 5.53 11 11 11 
2.97 3.27 -0.09 65 65 65 
4.77 1.18 0.95 133 133 133 
3.09 3.15 0.56 86 86 86 
1.26 -1 4.34 19 19 19 
0.4 -1.55 2.68 24 24 24 
2.37 -1.2 1.4 20 20 20 
1.39 1.55 5.64 7 7 7 
1.99 -1.47 1.89 112 112 112 
2.14 2.91 5.6 6 6 6 
2.6 3.29 0.29 59 59 59 
3.2 0.06 -0.37 54 54 54 
1.35 2.42 3.73 20 20 20 
3.37 2.76 4.4 8 8 8 
3 3.31 2.14 50 50 50 
4.77 1.18 0.82 96 96 96 
2.4 -0.96 0.59 24 24 24 
1.51 -1.1 -0.3 32 32 32 
3.01 3.37 2.68 127 127 127 
2.14 0.07 -0.3 42 42 42 
1.64 2.46 2.05 7 7 7 
3.33 2.9 3.63 30 30 30 
1.17 -2.03 -0.16 26 26 26 
3.89 0.23 1.8 61 61 61 
0.38 -1.5 2.11 42 42 42 
2.65 -0.93 -0.15 7 7 7 
4.77 1.18 0.71 78 78 78 
1.62 2.52 5.52 4 4 4 
0.99 -1.94 2.46 6 6 6 
3.44 -0.08 1.34 55 55 55 
2.27 3.04 5.48 8 8 8 
2.76 2.3 4.23 25 25 25 
2.67 3.53 3.06 91 91 91 
3.77 0.42 -0.38 63 63 63 
3.31 -0.39 2.92 21 21 21 
1.08 -1.84 4.24 12 12 12 
4.38 1.71 0.1 34 34 34 
2.86 -0.64 0.96 78 78 78 
3.56 2.6 3.43 23 23 23 
1.23 2.04 5 7 7 7 
1.52 0.26 -0.28 45 45 45 
1.3 -1.79 5.85 49 49 49 
1.25 -2.02 1.36 32 32 32 
2.63 3.28 1.8 179 179 179 
1.75 -0.83 5.7 9 9 9 
2.48 -0.94 0.82 28 28 28 
2.75 3.56 4.35 12 12 12 
2.16 -0.21 5.47 11 11 11 
2.06 1.99 -0.32 54 54 54 
3.35 -0.37 2.84 16 16 16 
1.93 -1.4 3.13 15 15 15 
3.45 -0.16 1.14 79 79 79 
1.62 -1.66 2.37 49 49 49 
4.52 1.51 -0.33 69 69 69 
2.03 -1.43 1.93 120 120 120 
3.5 2.68 1.23 172 172 172 
4.18 0.49 1.4 77 77 77 
2.15 -1.4 1.13 18 18 18 
1.48 0.77 3.09 23 23 23 
3.42 -0.11 0.15 104 104 104 
3.08 -0.5 3.42 17 17 17 
3.17 3.12 1.19 154 154 154 
1.69 1.89 -0.32 27 27 27 
2.38 -0.97 -0.24 10 10 10 
4.34 1.77 0.99 168 168 168 
3.15 2.75 4.27 15 15 15 
3.5 -0.03 1.04 79 79 79 
0.81 1.38 -0.28 28 28 28 
1.16 2 5 14 14 14 
3.01 -0.43 1 77 77 77 
1.8 1.36 2.98 7 7 7 
3.23 3.05 3.98 22 22 22 
4.77 1.18 0.19 36 36 36 
3.53 2.68 2.8 45 45 45 
1.82 -1.66 1.88 49 49 49 
3.4 2.46 3.3 18 18 18 
3.15 3.13 3.2 111 111 111 
4.06 2.11 1.07 161 161 161 
2.18 2.78 -0.33 28 28 28 
0.2 1.18 2.02 6 6 6 
1.71 -0.49 2.95 35 35 35 
3.92 2.35 3.16 74 74 74 
3.69 2.49 1.38 183 183 183 
1.38 0.47 2.16 82 82 82 
1.17 -2.06 5.35 9 9 9 
3.06 2.7 -0.31 48 48 48 
2.14 -0.96 -0.33 34 34 34 
3.1 -0.46 3.32 17 17 17 
3.87 2.41 3.65 24 24 24 
2.03 0.53 -0.31 43 43 43 
3.19 2.14 -0.35 30 30 30 
3.36 -0.13 1.14 77 77 77 
1.36 0.54 1.61 29 29 29 
2.74 0.89 -0.33 63 63 63 
1.55 1.98 -0.32 35 35 35 
1.99 1.44 4.3 14 14 14 
2.95 1.61 -0.36 39 39 39 
3.23 3.18 5.37 6 6 6 
3.37 -0.25 1.3 83 83 83 
4.24 0.7 0.03 56 56 56 
2.69 -0.84 2.96 22 22 22 
1.47 -1.83 3.03 60 60 60 
2.96 3.28 -0.1 64 64 64 
1.57 -0.61 4.58 20 20 20 
0.94 -1.93 0.78 37 37 37 
3.22 -0.3 0.68 71 71 71 
4.56 1.63 0.18 63 63 63 
2.71 3.5 2.73 103 103 103 
3.22 2.83 0.82 120 120 120 
1.64 1.22 5.64 102 102 102 
0.74 -1.8 0.24 50 50 50 
1.23 -2.07 2.44 4 4 4 
4.22 1.95 1.48 188 188 188 
4.28 1.85 1.04 165 165 165 
3.27 3.01 1.54 195 195 195 
1.92 -1.47 -0.17 7 7 7 
1.76 -0.96 2.76 4 4 4 
2.93 -0.57 0.53 73 73 73 
0.52 -1.32 -0.28 20 20 20 
4.77 1.17 1.46 139 139 139 
3.4 2.87 1.26 160 160 160 
2.41 -0.98 2.97 16 16 16 
1.92 1.91 5.64 5 5 5 
3.13 3.21 5.41 6 6 6 
1.32 -2.03 1.47 33 33 33 
1.83 -0.53 4.36 36 36 36 
3.73 2.53 3.25 40 40 40 
1.3 0.94 4.41 18 18 18 
3.14 3.26 5.36 7 7 7 
1.79 1.31 3.17 7 7 7 
4.32 1.84 1.68 188 188 188 
1.99 -1.56 2.98 26 26 26 
2.94 -0.64 3.53 107 107 107 
2.91 3.3 0.01 65 65 65 
1.46 -0.74 -0.3 34 34 34 
2.87 3.4 5.1 255 255 255 
1.45 -1.74 1.21 5 5 5 
1.05 -1.83 4.1 62 62 62 
4.09 0.52 0.67 62 62 62 
2.65 -0.95 1.24 20 20 20 
2.6 -0.81 1.37 10 10 10 
0.5 -1.62 1.82 60 60 60 
0.96 0.58 3.2 9 9 9 
2.77 -0.69 1.07 87 87 87 
1.66 -1.47 -0.28 16 16 16 
0.29 -1.43 2.08 61 61 61 
2.09 -0.05 3.67 22 22 22 
3.19 3.1 2.89 86 86 86 
0.49 -1.66 3.25 32 32 32 
0.57 -1.7 1.96 54 54 54 
3.05 3.16 -0.39 30 30 30 
1.56 -1.79 2.71 168 168 168 
4.77 1.17 1.13 160 160 160 
2.97 3.4 2.3 46 46 46 
2.91 3.46 4.11 56 56 56 
2.84 -0.68 3.96 255 255 255 
1.18 -2.1 0.71 24 24 24 
4.77 1.17 1.08 147 147 147 
1.04 -1.7 -0.27 26 26 26 
1.49 -1.79 2.93 54 54 54 
1.47 0.34 3.31 166 166 166 
1.57 -1.74 2.7 103 103 103 
3.34 0.51 -0.35 48 48 48 
2.23 0.72 -0.33 40 40 40 
4.77 1.17 1.01 138 138 138 
2.59 3.48 3.08 30 30 30 
2.38 3.23 5.71 15 15 15 
4.48 1.67 0.89 143 143 143 
0.63 -1.96 5.79 30 30 30 
2.43 3.45 -0.02 37 37 37 
3.86 2.36 1.24 160 160 160 
0.66 1.64 4.8 5 5 5 
2.14 -1.34 0.33 17 17 17 
2.23 -0.11 5.44 16 16 16 
4.77 1.17 0.91 119 119 119 
2.76 -0.85 4.11 18 18 18 
3.27 2.88 0.2 39 39 39 
1.94 -1.47 0.74 19 19 19 
1.87 2.03 -0.33 29 29 29 
1.23 -2.02 1.06 47 47 47 
3.79 2 -0.24 24 24 24 
4.34 0.71 1.4 76 76 76 
4.77 1.17 0.83 82 82 82 
2.18 1.85 2.84 8 8 8 
2.71 -0.59 0.2 37 37 37 
0.8 -1.96 2.63 3 3 3 
2.69 3.35 3.13 255 255 255 
3.89 0.98 -0.34 52 52 52 
4.77 1.17 0.77 91 91 91 
1.97 2.19 -0.33 48 48 48 
2.16 -1.04 -0.17 33 33 33 
1.56 0.66 3.4 75 75 75 
3.62 0.09 0.88 74 74 74 
3.86 0.34 -0.34 86 86 86 
2.87 3.45 2.46 18 18 18 
4.2 1.73 -0.04 32 32 32 
0.42 0.72 2.97 23 23 23 
3.17 -0.56 3.33 46 46 46 
1.17 -1.92 1.04 3 3 3 
3.69 0.1 0.51 71 71 71 
2.05 1.61 3.16 16 16 16 
3.02 3.21 2.32 39 39 39 
2.94 3.46 4.04 12 12 12 
1.59 0.3 1.42 25 25 25 
2.41 -1.14 1.61 22 22 22 
0.99 -0.94 -0.29 20 20 20 
2.17 2.02 -0.32 62 62 62 
4.39 1.68 0.18 43 43 43 
2.46 3.35 5.45 19 19 19 
3.28 -0.26 0.8 74 74 74 
0.02 -1.17 2.17 68 68 68 
3.39 2.79 0.15 40 40 40 
2.36 2.5 -0.36 27 27 27 
1.22 -0.98 -0.28 22 22 22 
4.77 1.17 0.51 36 36 36 
2.79 -0.33 -0.35 48 48 48 
3.54 2.64 0.65 54 54 54 
2.26 -0.46 -0.29 42 42 42 
3.38 -0.11 0.91 48 48 48 
3.22 -0.39 1.23 79 79 79 
3.21 1.22 -0.38 42 42 42 
1.71 -0.72 2.75 18 18 18 
2.92 -0.63 0.87 68 68 68 
1.19 -2.11 2.99 8 8 8 
4.29 0.66 0.54 71 71 71 
3.51 2.7 1.36 192 192 192 
3.79 0.75 -0.37 47 47 47 
3.81 2.4 1.33 163 163 163 
0.42 -1.53 2.68 10 10 10 
3.45 -0.23 3.13 25 25 25 
2.86 -0.73 1.18 76 76 76 
2.48 -0.98 0.88 28 28 28 
3.3 2.97 4.23 18 18 18 
2.73 -0.66 0.01 50 50 50 
2.56 2.96 -0.31 26 26 26 
2.17 1.52 -0.33 46 46 46 
4.32 0.74 1.35 73 73 73 
1.53 -1.79 2.92 56 56 56 
2.68 3.51 5.21 9 9 9 
3.59 2.58 0.8 127 127 127 
3.22 -0.42 1.67 48 48 48 
1.11 -1.92 3.99 13 13 13 
2.14 -1.25 2.59 19 19 19 
2.74 -0.8 1.3 90 90 90 
2.22 -0.83 -0.3 36 36 36 
3.63 2.7 3.48 24 24 24 
3.21 3.02 0.73 49 49 49 
4.45 0.82 1.08 120 120 120 
3.47 2.73 -0.07 57 57 57 
3.51 -0.02 -0.02 97 97 97 
3.19 3.14 3.13 97 97 97 
2.01 -1.44 3.02 30 30 30 
1.19 -1.96 0.77 4 4 4 
2.71 3.48 2.75 161 161 161 
2.72 -0.94 3.81 31 31 31 
2.51 -0.35 -0.32 34 34 34 
1.17 -2 0.6 31 31 31 
0.82 0.2 2.76 13 13 13 
3.75 2.5 2.13 195 195 195 
4.56 1.3 0.29 79 79 79 
3.46 2.72 0.88 162 162 162 
1.5 -0.65 5.67 12 12 12 
3.62 0.07 0.44 91 91 91 
4.11 0.46 1.81 110 110 110 
1.7 0.35 1.36 6 6 6 
3.15 3.26 2.82 116 116 116 
0.58 -1.82 3.82 10 10 10 
4.48 0.86 1.31 109 109 109 
2.78 3.3 5.14 33 33 33 
4.77 1.16 1.53 141 141 141 
3.33 -0.44 3.68 93 93 93 
2.13 -0.23 4.37 7 7 7 
3 3.24 0.94 133 133 133 
4.53 1.56 0.15 60 60 60 
3.38 0.19 -0.35 58 58 58 
2.12 2.3 -0.34 34 34 34 
1.07 -1.74 -0.24 54 54 54 
2.29 -1.26 1.52 25 25 25 
4.53 0.91 1.02 131 131 131 
2.51 -1.08 1.42 22 22 22 
1.47 0.5 3.52 40 40 40 
2.68 3.49 2.21 41 41 41 
1.57 0.14 2.06 83 83 83 
2.7 -0.8 1.37 104 104 104 
2.23 -0.6 -0.33 36 36 36 
0.36 -1.52 4 23 23 23 
4.11 0.71 -0.39 43 43 43 
2.58 -0.84 -0.25 20 20 20 
2.99 -0.56 3.13 28 28 28 
2.14 0.5 -0.32 50 50 50 
2.61 3.46 0.32 54 54 54 
1.03 -1.98 4.11 26 26 26 
2.75 -0.97 3.5 27 27 27 
2.56 0.2 -0.33 44 44 44 
1.95 0 -0.32 43 43 43 
4.5 1.62 1.06 141 141 141 
4.23 1.89 0.29 71 71 71 
3.13 3.09 1.26 167 167 167 
2.3 1.91 4.31 15 15 15 
-0.11 -1.01 3.3 36 36 36 
3.72 0.15 1.17 63 63 63 
1.28 -1.98 1.05 35 35 35 
3.16 2.8 0.29 58 58 58 
1.3 -0.86 4.56 13 13 13 
1.25 -2.03 0.75 16 16 16 
3.09 -0.61 2.65 8 8 8 
3.74 2.48 3.1 50 50 50 
4.34 0.75 0.51 68 68 68 
4.55 1.58 0.69 125 125 125 
2.41 -1.14 3.16 23 23 23 
1.47 2.35 4.53 7 7 7 
4.14 0.88 -0.36 36 36 36 
2.92 -0.7 1.8 96 96 96 
3.42 -0.01 -0.34 50 50 50 
3.29 1.32 -0.36 32 32 32 
2.24 2.22 5.6 8 8 8 
3.47 -0.03 -0.2 95 95 95 
4.35 0.68 1.75 164 164 164 
4.05 0.44 1.73 68 68 68 
2.86 3.47 4.09 78 78 78 
3 3.39 2.53 113 113 113 
3.18 -0.31 0.47 44 44 44 
3.23 -0.29 0.92 80 80 80 
2.12 -1.32 -0.14 16 16 16 
3.4 -0.18 0.65 66 66 66 
2.41 -1.09 1.89 117 117 117 
4.51 1.65 1.67 209 209 209 
0.36 -1.49 1.94 51 51 51 
1.55 0.54 2.58 73 73 73 
2.64 3.43 -0.27 6 6 6 
1.67 -0.75 4.52 14 14 14 
0.5 -1.67 2.98 9 9 9 
2.35 -1.14 1 20 20 20 
2.23 3.02 5.36 5 5 5 
4.22 1.94 0.99 159 159 159 
3.02 3.37 2.51 89 89 89 
3.62 2.54 0.69 38 38 38 
4.17 1.97 0.69 127 127 127 
2.85 3.39 1.25 146 146 146 
2.3 0.92 -0.33 41 41 41 
3.09 3.21 1.66 193 193 193 
3.08 3.3 3.58 79 79 79 
2.12 1.93 2.93 9 9 9 
1.43 -0.84 4.51 42 42 42 
2.73 3.46 2.52 61 61 61 
3.38 -0.36 3.21 22 22 22 
1.35 0.55 1.81 58 58 58 
2.13 2.19 5.53 7 7 7 
3.43 2.8 3.59 25 25 25 
3.31 0.28 -0.35 54 54 54 
2.07 -1.42 1.84 15 15 15 
4.51 0.88 1.1 132 132 132 
1.18 -1.61 5.84 41 41 41 
3.36 2.88 3.62 25 25 25 
1.6 2.47 -0.3 27 27 27 
4.56 1.18 1.32 135 135 135 
1.71 -1.65 3.13 30 30 30 
4.77 1.16 0.65 53 53 53 
1.26 -0.26 2.75 17 17 17 
3.45 -0.12 0.37 97 97 97 
1.58 2.49 2.89 16 16 16 
2.22 -1.24 0.39 18 18 18 
0.96 1.87 1.44 113 113 113 
1.07 -1.84 3.97 12 12 12 
3.87 2.34 2.91 105 105 105 
2.89 -0.8 2.94 25 25 25 
4.07 2.15 2 193 193 193 
0.88 1.68 -0.28 47 47 47 
4.29 1.87 1.09 158 158 158 
3.08 -0.62 2.96 13 13 13 
2.77 0.75 -0.33 53 53 53 
1.26 -1.89 1.08 36 36 36 
0.91 -0.73 -0.26 26 26 26 
2.94 -0.62 0.92 70 70 70 
1.65 -1.74 1.68 20 20 20 
3.06 2.98 0.84 60 60 60 
1.64 0.89 2.9 17 17 17 
3.58 2.74 3.11 41 41 41 
0.45 -1.47 0.57 75 75 75 
3.51 2.76 2.93 43 43 43 
1.37 -0.38 -0.29 37 37 37 
2.77 -0.66 3.54 163 163 163 
4.41 1.69 0.02 40 40 40 
4 0.55 -0.38 44 44 44 
2.74 3.46 2.44 50 50 50 
3.24 2.97 4.43 9 9 9 
4.77 1.15 1.78 178 178 178 
3.45 2.81 3.22 35 35 35 
2.39 -1.18 2.99 103 103 103 
2.07 1.99 2.96 18 18 18 
2.3 1.72 -0.32 64 64 64 
1.56 -1.75 2.75 106 106 106 
3.61 2.07 -0.1 21 21 21 
1.62 -1.69 2.35 62 62 62 
3.97 0.43 0.32 106 106 106 
2.95 -0.55 1.84 65 65 65 
1.81 -1.75 -0.1 6 6 6 
2.71 3.27 1.75 93 93 93 
2.65 -0.9 2.9 25 25 25 
3.93 0.31 1.55 66 66 66 
3.92 2.25 0.92 120 120 120 
3.39 2.83 4.27 32 32 32 
1.34 -1.88 0.43 31 31 31 
3.17 -0.3 0.45 35 35 35 
3.98 1.92 0.77 9 9 9 
3.29 2.89 0.58 48 48 48 
3.46 2.79 1.21 168 168 168 
1.39 0.37 2.29 23 23 23 
2.73 3.33 2.35 45 45 45 
1.7 0.04 3.7 22 22 22 
2.46 -0.99 0.72 26 26 26 
3.71 2.43 0.11 28 28 28 
1.4 0.74 2.96 26 26 26 
3.1 -0.45 0.82 74 74 74 
1.59 1.19 -0.3 35 35 35 
1.61 0.85 2.76 23 23 23 
3.13 2.55 4.31 6 6 6 
4.77 1.15 1.47 117 117 117 
3.74 0.18 0.85 71 71 71 
1.98 -1.4 0.67 17 17 17 
4.49 1.24 1.62 37 37 37 
-0.37 -0.85 3.45 65 65 65 
3.78 2.5 1.92 228 228 228 
3.88 1.14 -0.33 28 28 28 
3.24 0.98 -0.32 49 49 49 
1.34 -0.29 -0.3 36 36 36 
2.93 -0.6 1.1 87 87 87 
1.27 -0.36 -0.28 34 34 34 
1.21 -1.96 0.01 3 3 3 
1.49 0.55 1.78 52 52 52 
2.03 -0.08 3.17 8 8 8 
3.21 1.54 -0.34 37 37 37 
0.63 0.8 2.77 9 9 9 
2.75 -0.87 3.7 44 44 44 
3.44 -0.07 0.35 104 104 104 
0.34 1.2 2.96 3 3 3 
1.23 -2.13 3.6 8 8 8 
1.66 -1.63 2.23 34 34 34 
4.77 1.15 1.26 99 99 99 
1.52 0.97 2.53 14 14 14 
4.77 1.15 1.24 113 113 113 
3.54 2.62 0.31 84 84 84 
2.08 -1.42 2.07 141 141 141 
2.88 2.39 -0.36 27 27 27 
-0.09 0.91 2.82 89 89 89 
2.48 -1.09 3.43 32 32 32 
0.35 -1.41 0.12 59 59 59 
1.79 -1.53 2.32 31 31 31 
2.88 -0.71 3.44 52 52 52 
3.26 2.95 3.98 24 24 24 
3.94 1.98 0.1 58 58 58 
2.4 -1.13 0.6 22 22 22 
2.88 3.43 0.73 132 132 132 
2.69 2.03 -0.34 29 29 29 
2.65 3.31 0.89 122 122 122 
0.42 -1.57 1 3 3 3 
0.87 -2.08 2.62 6 6 6 
4.1 0.5 0.94 67 67 67 
3.41 1.6 -0.35 29 29 29 
3.21 3.03 -0.04 65 65 65 
1.23 -0.84 -0.29 23 23 23 
1.62 0.42 -0.27 46 46 46 
3.52 2.66 0.01 60 60 60 
4.54 1.22 -0.15 35 35 35 
2.39 -1.09 1.78 46 46 46 
1.34 0.28 3.22 147 147 147 
3.2 3.11 3.12 59 59 59 
4.06 2.08 1.25 165 165 165 
4.33 1.8 -0.21 49 49 49 
2.22 1.76 4.37 14 14 14 
4.52 1.27 0.58 95 95 95 
1.64 -0.67 4.38 17 17 17 
2.9 -0.64 3.84 255 255 255 
2.73 3.52 4.27 13 13 13 
4.77 1.15 0.9 97 97 97 
4.11 0.57 0 68 68 68 
1.43 0.4 2.92 113 113 113 
3.96 0.99 -0.36 37 37 37 
2.92 -0.68 2.98 20 20 20 
1.34 -1.85 1.49 37 37 37 
2.75 3.43 3.01 117 117 117 
3.99 1.78 0.05 61 61 61 
1.32 -1.27 -0.3 17 17 17 
1.52 -1.53 -0.28 15 15 15 
0.72 -1.81 0.99 38 38 38 
2.69 3.48 5.29 8 8 8 
2.8 -0.93 3.83 26 26 26 
3.45 2.72 0.12 37 37 37 
0.97 -1.96 2.6 8 8 8 
1.83 2.27 2.78 17 17 17 
3.72 1.12 -0.33 32 32 32 
2.76 -0.82 1.34 79 79 79 
2.87 -0.83 3.17 25 25 25 
4.55 1.31 -0.08 64 64 64 
3.08 -0.49 0.86 76 76 76 
3.26 -0.41 1.71 49 49 49 
4.12 0.52 1.33 66 66 66 
3.82 2.44 1.95 195 195 195 
2.73 3.31 4.03 48 48 48 
1.07 -0.42 -0.27 49 49 49 
3.52 -0.06 0.91 78 78 78 
1.49 -1.83 2.25 60 60 60 
3.37 -0.15 -0.24 91 91 91 
3.69 0.15 -0.13 98 98 98 
3.07 -0.68 3.17 21 21 21 
3.72 1.04 -0.37 41 41 41 
0.42 -1.49 0.9 5 5 5 
4.77 1.14 1.64 108 108 108 
0.74 -1.85 1.43 60 60 60 
2.17 1.87 2.81 11 11 11 
1.95 -1.35 3.36 13 13 13 
3.75 0.12 1.43 62 62 62 
2.03 -1.54 2.94 38 38 38 
2.15 2.88 5.55 6 6 6 
3.12 -0.49 1.15 69 69 69 
2.1 1.59 -0.32 52 52 52 
1.26 -1.34 -0.31 20 20 20 
3.31 -0.14 -0.35 59 59 59 
1.48 -1.84 1 6 6 6 
3.38 2.77 4.3 18 18 18 
2.13 -1.34 -0.17 21 21 21 
4.27 1.9 0.34 78 78 78 
2.02 0.37 -0.32 42 42 42 
2.95 3.29 1.2 175 175 175 
2.54 -0.91 0.31 8 8 8 
3.25 2.88 4.57 10 10 10 
0.24 1.22 2.2 2 2 2 
3.27 2.98 2.17 255 255 255 
1.62 2.49 2.69 24 24 24 
3.72 2.53 2.89 42 42 42 
-0.26 -0.9 2.95 28 28 28 
3.43 2.92 3.44 34 34 34 
4.16 0.57 0.93 67 67 67 
2.32 -0.33 -0.3 40 40 40 
2.45 3.45 0.97 92 92 92 
2.65 -0.82 2.19 9 9 9 
2.01 2.93 1.58 108 108 108 
3.24 3.12 5.62 7 7 7 
3.47 2.56 3.33 27 27 27 
0.61 1.99 5.21 8 8 8 
1.2 -1.05 -0.27 21 21 21 
2 -1.8 3.08 27 27 27 
0.93 -1.66 -0.32 16 16 16 
3.86 2.07 0.51 48 48 48 
2.73 3.58 4.78 9 9 9 
3.05 1.72 -0.33 34 34 34 
1.35 -1 4.53 18 18 18 
2.99 -0.74 2.65 17 17 17 
2.29 -1.21 0.59 16 16 16 
1.35 2.51 5.09 35 35 35 
3.32 -0.49 2.85 13 13 13 
1.1 2.08 -0.31 41 41 41 
3.41 2.85 2.95 39 39 39 
1.84 -0.45 3.09 22 22 22 
1.08 -1.99 4.35 24 24 24 
4.56 1.59 0.65 111 111 111 
4.77 1.14 1.15 133 133 133 
2.08 -1.48 1.41 23 23 23 
3.12 3.1 1.63 214 214 214 
3.72 2.5 2.82 47 47 47 
3.59 0.01 0.5 87 87 87 
2.21 2.01 2.91 7 7 7 
2.87 -0.54 0.02 26 26 26 
3.59 2.07 -0.38 28 28 28 
3.83 0.82 -0.35 42 42 42 
3.87 1.44 -0.4 30 30 30 
2.12 -0.04 2.93 63 63 63 
3.7 2.51 1.34 181 181 181 
2.6 0.82 -0.31 64 64 64 
1.8 -1.52 2.61 32 32 32 
0.28 1.26 -0.27 12 12 12 
3.56 0.06 0.4 110 110 110 
1.44 2.34 3.6 21 21 21 
2.31 2.27 -0.31 42 42 42 
4.34 0.76 0.11 52 52 52 
4.14 1.69 0.08 60 60 60 
3.05 3.27 2.73 167 167 167 
1.88 -1.63 2.92 138 138 138 
3.28 2.96 2.49 35 35 35 
0.49 0.67 2.78 7 7 7 
1.78 2.65 5.51 4 4 4 
0.55 -1.72 -0.24 39 39 39 
2.79 3.38 5.36 17 17 17 
3.46 2.73 1.21 180 180 180 
1.96 -1.54 1.83 12 12 12 
0.45 -1.5 -0.29 17 17 17 
0.87 -2.06 2.96 7 7 7 
0.44 1.3 2.68 65 65 65 
3.02 3.29 3.33 151 151 151 
3.55 2.68 1.44 186 186 186 
2.62 3.5 5.09 16 16 16 
2.5 1.54 2.73 20 20 20 
2.04 -0.53 -0.3 35 35 35 
3.19 -0.4 3.54 36 36 36 
3.71 2.54 2.16 146 146 146 
3.13 3.3 4.02 25 25 25 
2.96 3.42 4.8 6 6 6 
3.44 -0.29 3.49 47 47 47 
0.22 1.39 4.76 3 3 3 
3.17 -0.37 0.68 73 73 73 
4.77 1.13 1.58 100 100 100 
4.77 1.13 1.57 96 96 96 
2.83 -0.86 2.87 23 23 23 
2.38 -0.38 -0.32 42 42 42 
2.16 -1.26 -0.08 16 16 16 
-0.29 0.71 3.05 13 13 13 
2.34 3.19 5.41 18 18 18 
1.13 -2.11 1.79 31 31 31 
0.2 1.1 -0.28 15 15 15 
2.63 3.53 3.33 53 53 53 
3.13 -0.51 1.84 58 58 58 
2.96 3.42 4.68 9 9 9 
2.99 -0.7 2.9 21 21 21 
1.42 0.36 -0.27 32 32 32 
3.48 1.9 -0.35 26 26 26 
4.15 2 1.62 190 190 190 
3.9 1.69 -0.36 28 28 28 
1.82 -1.67 1.98 93 93 93 
2.61 0.56 -0.31 54 54 54 
3.21 3.05 2.16 255 255 255 
1.64 2.95 5.17 102 102 102 
1.41 0.61 2.95 62 62 62 
0.11 -1.07 -0.27 17 17 17 
1.96 2.65 -0.33 27 27 27 
3.68 0.14 0.04 98 98 98 
1.3 1.78 -0.29 26 26 26 
0.58 1.29 -0.27 19 19 19 
4.21 1.98 1.39 176 176 176 
2.73 3.45 1.82 168 168 168 
3.03 3.34 4.08 19 19 19 
4.77 1.13 1.28 129 129 129 
1.26 0.05 -0.27 39 39 39 
2.58 3.12 3.18 255 255 255 
3 3.22 1.11 142 142 142 
3.47 -0.13 1.52 57 57 57 
3.87 2.36 3.09 71 71 71 
1.35 -0.39 2.94 11 11 11 
1.5 -0.45 4.6 22 22 22 
2.08 1.71 -0.3 42 42 42 
3.2 -0.48 3.24 22 22 22 
0.58 -1.59 -0.29 17 17 17 
3.24 3.13 5.62 14 14 14 
0.46 -1.2 -0.26 19 19 19 
2.31 2.29 5.64 8 8 8 
1.17 -2.04 0.48 31 31 31 
2.71 3.38 2.64 158 158 158 
1.22 -1.96 0.76 58 58 58 
3.59 0.59 -0.34 56 56 56 
3.29 -0.38 2.05 69 69 69 
3.43 -0.07 0.9 76 76 76 
2.75 3.54 5.48 11 11 11 
1.96 0.33 -0.28 49 49 49 
0.4 -1.49 0.92 25 25 25 
3.11 -0.5 1.56 107 107 107 
2.9 3.34 0.53 85 85 85 
4.13 2.06 1.52 177 177 177 
0.9 -1.99 1.54 37 37 37 
0.48 2.02 5.21 9 9 9 
2.64 2.85 -0.33 27 27 27 
2.96 3.27 3.41 119 119 119 
4.52 0.94 0.94 123 123 123 
3.32 2.99 4.2 24 24 24 
2.1 2.15 -0.29 47 47 47 
1.35 0.78 4.32 13 13 13 
4.77 1.12 1.81 123 123 123 
1.6 0.13 3.66 41 41 41 
0.26 1.24 2.28 9 9 9 
0.35 1.07 2.95 3 3 3 
4.36 1.78 1.51 182 182 182 
3.63 2.55 0.7 54 54 54 
2.33 1.94 4.31 14 14 14 
3.02 3.25 0.73 93 93 93 
2.9 -0.84 3.28 31 31 31 
3.51 2.19 -0.35 14 14 14 
2.53 -1.03 2.97 23 23 23 
1.88 1.88 5.67 7 7 7 
4.77 1.12 1.69 101 101 101 
3.32 2.97 3.06 49 49 49 
1.4 -1.83 0.16 42 42 42 
4.36 0.74 1.79 152 152 152 
3.56 0.01 0.77 69 69 69 
3.64 0.04 0.81 78 78 78 
2.82 -0.46 -0.33 25 25 25 
0.98 -1.89 1.18 47 47 47 
2.96 -0.53 0.28 28 28 28 
2.58 0.76 -0.3 64 64 64 
1.57 2.04 -0.33 29 29 29 
1 -1.83 1.22 38 38 38 
1.3 -1.96 0.67 36 36 36 
3.22 3.09 3.39 70 70 70 
4.22 1.92 1.04 158 158 158 
3.56 0.06 0.45 92 92 92 
0.92 -2 1.07 38 38 38 
1.34 -1.97 1.39 41 41 41 
1.44 -0.48 -0.28 37 37 37 
0.81 0.64 2.75 7 7 7 
3.24 2.98 0.39 84 84 84 
3.47 2.77 2.74 50 50 50 
1.16 -2.07 0.68 26 26 26 
2.12 2.94 5.43 13 13 13 
1.44 0.34 2.7 142 142 142 
2.62 3.31 -0.07 39 39 39 
3.41 -0.28 3.04 14 14 14 
2.63 3.42 -0.22 7 7 7 
1.03 -2.01 5.37 17 17 17 
2.21 -1.33 1.13 21 21 21 
2.04 2.75 -0.33 26 26 26 
2.79 -0.79 2.81 23 23 23 
2.72 1.76 -0.34 41 41 41 
2.96 -0.52 1.48 84 84 84 
1.57 0.58 3.11 82 82 82 
3.39 2.86 2.74 62 62 62 
4.34 0.67 1.75 163 163 163 
4.5 1.65 1.44 173 173 173 
3.59 0.04 -0.1 97 97 97 
2.92 3.32 1.71 216 216 216 
1.6 -0.43 5.68 13 13 13 
3.09 -0.65 3.39 36 36 36 
3.54 2.71 3.48 23 23 23 
1.59 0.76 -0.28 32 32 32 
2.19 -1.29 0.45 20 20 20 
1.35 2.24 4.83 6 6 6 
1.88 -1.67 1.37 22 22 22 
1.4 0.16 2.69 136 136 136 
1.06 -1.84 3.35 10 10 10 
2.99 -0.77 3.89 140 140 140 
2.14 -0.2 2.79 30 30 30 
2 1.45 4.29 13 13 13 
1.55 0.47 1.44 22 22 22 
2.63 3.45 0.54 60 60 60 
0.85 -1.39 0.82 33 33 33 
2.14 2.03 -0.32 54 54 54 
3.29 2.03 -0.34 30 30 30 
0.49 -1.58 1.23 55 55 55 
1.82 -1.7 3.08 24 24 24 
1.07 0.04 -0.28 33 33 33 
4.45 1.64 1.72 205 205 205 
3.28 2.93 0.41 89 89 89 
3.51 2.27 -0.25 31 31 31 
2.91 3.4 1.64 195 195 195 
2.95 3.15 -0.35 32 32 32 
3.18 3.1 1.34 173 173 173 
2.03 -0.11 2.75 23 23 23 
4.52 0.87 0.71 110 110 110 
3.98 0.42 0.86 61 61 61 
3.18 3.2 3.27 98 98 98 
2.26 -0.89 -0.31 44 44 44 
3.28 2.65 0.13 38 38 38 
1.34 -1.83 1.31 40 40 40 
3.28 0.95 -0.36 45 45 45 
3.8 2.16 0.83 22 22 22 
3.25 -0.28 0.35 41 41 41 
3.7 1.29 -0.36 49 49 49 
4.23 0.85 -0.39 34 34 34 
0.89 -1.96 1.35 44 44 44 
2.37 -1.05 0.6 23 23 23 
3.29 2.94 4.23 33 33 33 
3.78 2.48 3.31 36 36 36 
1.9 -1.66 1.47 23 23 23 
1.71 -1.57 2.06 111 111 111 
1.62 -1.42 -0.31 20 20 20 
1.43 -1.75 1.23 30 30 30 
1.57 2.54 2.71 70 70 70 
1.57 0.53 5.53 16 16 16 
2.24 3.06 5.38 12 12 12 
1.72 -1.79 2.5 79 79 79 
1.75 -0.24 -0.3 37 37 37 
2.79 -0.76 0.84 68 68 68 
1.8 -1.03 -0.31 30 30 30 
2.13 -1.42 2.82 19 19 19 
3.1 3.11 -0.3 52 52 52 
2.74 -0.92 0.65 8 8 8 
0.64 -1.75 1.92 59 59 59 
1.81 -1.53 2.68 40 40 40 
2.3 -0.96 -0.26 25 25 25 
2.16 -1 -0.32 29 29 29 
1.69 2.25 2.8 15 15 15 
1.89 2.14 2.78 18 18 18 
1.66 -1.67 2.85 34 34 34 
1.18 -2.05 1.02 26 26 26 
2.26 -1.31 3.72 17 17 17 
1.37 -1.93 2.11 47 47 47 
1.55 1.59 -0.27 28 28 28 
1.66 -0.58 5.65 13 13 13 
2.65 3.29 0.42 21 21 21 
1.46 0.34 2.72 145 145 145 
1.58 1.56 -0.27 30 30 30 
3.73 0.21 0.3 103 103 103 
2.91 3.41 1.83 253 253 253 
3.74 0.17 0.15 98 98 98 
3.34 -0.24 1.01 80 80 80 
4.77 1.11 1.3 93 93 93 
2.86 -0.68 3.45 107 107 107 
3.21 2.82 0.61 109 109 109 
3.85 2.36 2.15 236 236 236 
2.38 0.92 -0.33 41 41 41 
2.17 -0.16 5.46 7 7 7 
2.99 -0.58 0.48 73 73 73 
3.13 3.19 2.7 130 130 130 
2.09 -1.38 0.32 15 15 15 
2.95 3.41 2.15 31 31 31 
2.08 2.83 5.55 8 8 8 
3.36 0.07 -0.35 67 67 67 
1.94 -0.65 -0.31 33 33 33 
4.77 1.11 1.16 120 120 120 
3.85 2.41 3.03 65 65 65 
0.36 -1.67 3.78 19 19 19 
1.1 -0.14 -0.28 31 31 31 
2.77 -0.73 1.26 86 86 86 
3.26 2.85 0.65 85 85 85 
2.73 1.86 -0.36 40 40 40 
1.48 -1.82 2.78 119 119 119 
3.4 2.65 3.44 19 19 19 
2.35 3.13 5.52 11 11 11 
0.85 -1.15 -0.26 45 45 45 
0.99 -1.78 1.24 34 34 34 
3.11 -0.4 1.05 94 94 94 
1.67 0.96 -0.28 32 32 32 
2.04 1.68 -0.29 44 44 44 
2.63 -0.93 0.77 5 5 5 
3.19 3.08 2.36 35 35 35 
2.22 -1.31 3.38 10 10 10 
2.07 -1.47 1.2 19 19 19 
2.64 3.32 0.52 81 81 81 
4.77 1.1 1.63 87 87 87 
1.53 -0.46 4.6 16 16 16 
0.75 2.04 5.45 13 13 13 
0.42 -1.53 0.71 4 4 4 
3.01 0.33 -0.33 53 53 53 
4.12 2 0.14 34 34 34 
3.33 -0.23 0.85 75 75 75 
1.56 0.53 3.27 109 109 109 
3.72 2.36 3.19 51 51 51 
3.97 0.73 -0.38 46 46 46 
4.37 0.79 -0.01 53 53 53 
3.95 0.4 0.3 107 107 107 
4.21 1.97 0.25 42 42 42 
3.02 -0.53 1.08 83 83 83 
3.25 3.05 3.71 34 34 34 
0.09 -1.27 3.16 32 32 32 
3.87 1.22 -0.33 26 26 26 
2.86 3.44 3.9 45 45 45 
2.05 -0.13 4.41 19 19 19 
3.49 1.18 -0.35 29 29 29 
3.19 -0.56 3.75 43 43 43 
3.88 2.28 1.61 198 198 198 
0.84 -1.96 0.67 59 59 59 
3.11 3.23 3.24 104 104 104 
2.71 -0.9 4.04 18 18 18 
2.66 0.34 -0.33 50 50 50 
3.17 -0.39 0.71 71 71 71 
3.09 3.13 1.22 159 159 159 
3.96 1.99 0.79 77 77 77 
4 2.18 0.23 33 33 33 
2.75 -0.68 1.31 83 83 83 
3.47 2.8 1.38 174 174 174 
2.2 -0.09 3.22 62 62 62 
4.4 1.71 1.06 153 153 153 
3.42 2.81 4.39 6 6 6 
1.28 1.79 5.69 6 6 6 
1.75 -1.55 1.05 17 17 17 
1.97 -1.53 1.89 22 22 22 
1.31 -1.9 0.89 39 39 39 
1.32 -0.74 -0.3 30 30 30 
2.64 -0.88 0.22 7 7 7 
1.54 0.43 2.2 78 78 78 
2.16 -0.11 4.39 19 19 19 
4.44 1.68 0.08 41 41 41 
1.21 1.01 -0.27 34 34 34 
0.44 -1.69 2.45 4 4 4 
0.26 -1.4 3.47 30 30 30 
2.93 -0.63 0.49 60 60 60 
3.28 2.83 0.76 65 65 65 
1.19 0.25 -0.28 40 40 40 
3.23 0.19 -0.34 98 98 98 
2.37 3.22 5.43 19 19 19 
3.24 2.99 2.24 47 47 47 
2.57 3.49 4.52 12 12 12 
3.86 0.28 0.91 62 62 62 
3.8 2.07 0.41 34 34 34 
3.55 2.52 0.73 62 62 62 
1.18 -2.1 2.52 2 2 2 
0.76 -1.98 1.64 54 54 54 
3.46 2.8 1.21 157 157 157 
0.77 -1.4 4.33 17 17 17 
4.51 1.58 -0.38 36 36 36 
3.36 -0.28 1.39 69 69 69 
2.9 -0.63 0.4 34 34 34 
2.25 0.88 -0.32 48 48 48 
1.54 1 4.4 15 15 15 
2.95 -0.61 3.27 16 16 16 
2.79 -0.71 -0.29 46 46 46 
1.95 -0.05 3.65 41 41 41 
3.32 2.92 3.03 44 44 44 
2.13 -1.43 1.56 25 25 25 
4.77 1.08 1.77 162 162 162 
1.62 0.33 2.82 117 117 117 
1.39 1.74 -0.27 34 34 34 
4.45 1.68 1.63 207 207 207 
2.65 -0.74 3.36 56 56 56 
4.77 1.08 1.71 169 169 169 
4.44 0.92 -0.35 22 22 22 
3.37 2.56 0.51 107 107 107 
2.43 -1.05 2.17 50 50 50 
1.46 -1.79 1.5 9 9 9 
1.55 -1.74 2.07 117 117 117 
4.77 1.08 1.61 135 135 135 
0.97 -1.93 0.58 31 31 31 
3.17 3.03 1.12 153 153 153 
2.12 -0.07 -0.32 41 41 41 
2.6 3.3 1.25 138 138 138 
0.96 -1.32 4.32 12 12 12 
1.61 1.12 -0.3 35 35 35 
3.51 2.72 1.1 165 165 165 
