ply
format ascii 1.0
comment -------------------------------------------------------
comment This data format is a varient of the ply format for use
comment combining 3D and spectrometer data.
comment -------------------------------------------------------
comment Developed by i3D Robotics and is-instruments (C)2020
comment -------------------------------------------------------
comment Care has been taken to make sure the 3D data is still viewable
comment in standard ply readers however using custom properties and elements
comment may cause issues so it is advised to use i3DR's ply tools.
comment See [INSERT GITHUB LINK] for tools to read and write this data format
comment -------------------------------------------------------
comment Define in vertex element 3D point cloud data.
comment Also included is label_index, a scalar that can be used
comment to identify different types of points.
comment A label_index of 0 will refer to an un-lablled point.
comment Label_index can be used as a Scalar field to quickly see
comment the labelled groups in a point cloud.
element vertex 1811
property float x
property float y
property float z
property uchar red
property uchar green
property uchar blue
comment -------------------------------------------------------
comment Define in spectrum the spectrometer data.
element spectrum 0
property float x
property float y
property float z
property list uchar int label_indices
property list uchar float similarity
property list int float wavenumber
property list int float intensity
comment -------------------------------------------------------
comment Define in label the labels used in this dataset.
comment Text is in ascii integer.
element label 0
property list uchar int label_text
comment -------------------------------------------------------
end_header
2.28 3.25 0.42 47 47 47 
3.75 0.93 -0.34 44 44 44 
4.56 1.36 -0.17 63 63 63 
4.65 1.38 0.24 79 79 79 
1.76 -1.73 2.04 113 113 113 
3.26 3.13 3.18 57 57 57 
0.94 -1.83 1.26 65 65 65 
4.31 1.61 0.8 145 145 145 
2.76 -0.89 0.6 5 5 5 
2.81 3.49 2.91 163 163 163 
0.84 -2.02 0.86 38 38 38 
2.95 -0.58 3.07 13 13 13 
1.42 0.32 2.68 138 138 138 
2.57 3.45 5.32 9 9 9 
0.96 -2.04 3.66 12 12 12 
3.88 2.29 1.9 213 213 213 
2.15 2.94 5.58 16 16 16 
3.73 0.18 0.05 97 97 97 
2.47 -0.57 -0.34 37 37 37 
3.04 -0.58 1.65 90 90 90 
1.27 -2.07 3.36 9 9 9 
2.95 3.45 2.42 55 55 55 
3.17 2.83 0.89 70 70 70 
1.85 -0.39 2.99 40 40 40 
2.63 -0.99 3.25 27 27 27 
2.64 -0.9 1.17 6 6 6 
4.61 1.54 1.49 186 186 186 
1.52 -1.75 1.98 82 82 82 
0.18 1.15 -0.25 50 50 50 
2.73 3.47 3.11 255 255 255 
1.03 1.87 -0.29 26 26 26 
2.62 3.3 0.98 110 110 110 
4.47 1.6 -0.15 54 54 54 
2.12 -1.24 2.13 15 15 15 
1.56 -1.74 0.75 10 10 10 
4.81 1.14 1.78 119 119 119 
1.2 -1.77 5.88 13 13 13 
4.41 1.75 1.27 167 167 167 
2.55 -1 1.59 18 18 18 
4.15 1.61 -0.02 46 46 46 
1.75 0.8 1.39 20 20 20 
3.26 2.9 4.17 34 34 34 
3.23 -0.43 2.99 16 16 16 
1.38 0.65 2.53 42 42 42 
3.77 2.12 0.4 34 34 34 
1.81 -0.95 5.7 12 12 12 
0.78 -1.98 2.15 7 7 7 
3.33 -0.29 1.58 50 50 50 
4.23 0.54 1.6 96 96 96 
4.63 1.02 1.23 116 116 116 
2.64 3.5 0.69 83 83 83 
0.9 0.33 2.9 65 65 65 
2.86 -0.6 0.45 31 31 31 
4.66 1.41 -0.09 48 48 48 
2.98 -0.47 0.71 91 91 91 
2.68 3.42 0.78 77 77 77 
4.57 1.57 0.9 128 128 128 
1.94 2.78 -0.32 21 21 21 
4.29 1.87 1.6 178 178 178 
2.19 -1.36 3.19 12 12 12 
2.56 3.53 0.98 100 100 100 
0.28 -1.59 3.42 36 36 36 
2.66 3.27 0.47 56 56 56 
0.07 -1.11 -0.15 47 47 47 
2.55 3.48 1.38 118 118 118 
0.93 -1.85 0.8 39 39 39 
3.07 3.17 0.73 94 94 94 
2.31 1.89 -0.32 52 52 52 
3.02 0.1 -0.33 65 65 65 
1.62 -1.5 -0.31 21 21 21 
0.92 -1.95 1.12 44 44 44 
2.94 3.43 4.87 8 8 8 
1.2 0.86 -0.29 27 27 27 
2.93 3.32 0.45 78 78 78 
3.03 2.62 -0.37 24 24 24 
1.8 0.56 -0.29 45 45 45 
3.48 -0.13 1.38 57 57 57 
3.73 2.48 2.97 30 30 30 
3.92 2.28 1.53 195 195 195 
2.88 3.41 -0.01 59 59 59 
2.75 -0.79 1.17 81 81 81 
1.89 -0.11 -0.31 36 36 36 
3.26 2.94 -0.15 76 76 76 
2.99 2.83 -0.32 15 15 15 
1.74 -1.54 0.61 12 12 12 
2.56 -0.98 1.32 31 31 31 
0.42 -1.52 1.31 6 6 6 
2.21 -0.37 -0.33 33 33 33 
3.77 2.43 3.05 51 51 51 
3.36 0.78 -0.36 52 52 52 
4.22 1.91 1.04 159 159 159 
2.75 -0.9 3.81 34 34 34 
1 -1.86 -0.12 36 36 36 
2.89 3.43 2.93 54 54 54 
1.22 -1.97 1.09 34 34 34 
4.32 0.68 1.61 115 115 115 
2.3 1.01 -0.31 41 41 41 
2.83 -0.36 -0.33 44 44 44 
2.83 3.61 5.27 13 13 13 
1.6 0.42 3.2 137 137 137 
3.63 0.06 1.07 61 61 61 
2.14 3.02 5.68 10 10 10 
4.24 1.41 -0.32 41 41 41 
3.07 -0.39 0.79 70 70 70 
3.33 2.93 1.91 228 228 228 
2.64 0.44 -0.32 50 50 50 
0.68 2.23 5.15 6 6 6 
3.66 2.57 3.04 42 42 42 
2.73 3.3 4.8 11 11 11 
0.45 -1.15 -0.27 21 21 21 
1.57 0.64 3.48 14 14 14 
1.54 0.73 1.99 34 34 34 
3 -0.45 1.15 80 80 80 
3.12 3.16 0.23 67 67 67 
2.73 2.11 4.33 6 6 6 
3.68 0.14 0.14 95 95 95 
3.72 2.12 0.57 32 32 32 
2.92 -0.66 3.6 85 85 85 
4.35 0.77 0.55 63 63 63 
2.68 -0.93 3.62 29 29 29 
1.56 0.6 3.28 88 88 88 
3.78 0.25 -0.19 88 88 88 
2.86 3.44 3.98 77 77 77 
4.35 0.74 1.44 84 84 84 
3.32 -0.23 0.36 104 104 104 
3.5 -0.05 0.04 107 107 107 
3.87 2.31 0.56 39 39 39 
0.77 2.07 5.48 14 14 14 
4.08 0.51 0.63 61 61 61 
4.67 1.03 0.55 91 91 91 
3.93 2.27 1.02 142 142 142 
4.23 1.94 0.34 79 79 79 
1.42 -1.8 0.32 62 62 62 
1.53 -0.52 5.69 14 14 14 
3.34 -0.31 2.62 94 94 94 
2.91 3.34 3.6 50 50 50 
3.15 3.11 2.22 31 31 31 
4.28 1.85 0.17 42 42 42 
3.72 2.46 2.81 50 50 50 
3.39 -0.17 0.48 94 94 94 
3.21 3.25 5.42 7 7 7 
2.61 2.5 5.65 6 6 6 
3.77 2.4 1.81 213 213 213 
1.55 2.25 -0.32 35 35 35 
3.46 -0.1 0.09 100 100 100 
4.24 0.68 0.46 55 55 55 
2.85 3.46 1.42 123 123 123 
1.78 2.44 2.76 31 31 31 
1.52 0.55 2.05 67 67 67 
3.63 -0.03 1.85 212 212 212 
3.28 -0.21 0.66 78 78 78 
1.53 -1.78 2.09 104 104 104 
4.7 1.47 1.46 193 193 193 
3.55 2.61 0.2 40 40 40 
4.69 1.46 1.6 197 197 197 
2.03 1.5 -0.31 46 46 46 
3.96 2.24 1.36 172 172 172 
3.83 0.19 1.02 55 55 55 
2.55 -1.01 3.17 29 29 29 
4.2 1.71 0.54 44 44 44 
1.51 0.15 2.89 147 147 147 
2.64 -0.39 -0.34 37 37 37 
1.9 -1.63 1.45 22 22 22 
3.35 -0.27 1.85 144 144 144 
2.81 -0.89 3.18 34 34 34 
4.66 1.4 0.06 74 74 74 
0.94 -1.9 0.61 34 34 34 
2.03 -1.29 3.41 10 10 10 
2.97 -0.46 0.05 35 35 35 
3.14 3.23 2.38 38 38 38 
3.44 0.33 -0.36 54 54 54 
4.8 1.15 1.8 156 156 156 
2.05 -1.44 0.92 20 20 20 
1.15 -2.1 2.1 26 26 26 
2.87 -0.64 0.56 67 67 67 
1.88 -0.87 -0.33 32 32 32 
1.08 1.86 5 7 7 7 
3.04 2.98 0.41 75 75 75 
1.37 0.61 1.98 53 53 53 
1.71 -1.45 -0.34 21 21 21 
3.03 0.28 -0.34 52 52 52 
3.01 3.21 1.05 155 155 155 
4.26 0.61 1.64 124 124 124 
3.22 -0.34 0.73 68 68 68 
2.63 -0.93 0.67 6 6 6 
2.73 -0.94 1.09 5 5 5 
0.96 -1.83 0.9 103 103 103 
3.94 2.26 1.08 157 157 157 
2.86 3.44 1.01 103 103 103 
2.45 -1.03 0.64 26 26 26 
4.21 1.4 -0.39 25 25 25 
4.18 0.59 0.31 60 60 60 
3.03 -0.54 3.69 96 96 96 
3.18 0.62 -0.33 98 98 98 
3.14 3.09 0.38 77 77 77 
2.28 -0.18 5.44 8 8 8 
0.83 -2.11 3.17 5 5 5 
2.36 -1.19 1.24 20 20 20 
2.3 1.76 2.9 10 10 10 
0.71 -1.84 1.85 55 55 55 
3.36 -0.26 1.47 59 59 59 
2.18 -1.45 4.59 11 11 11 
2.38 1.21 -0.33 57 57 57 
2.56 -0.88 1.21 7 7 7 
1.87 1.95 -0.28 36 36 36 
1.42 1.34 5.43 140 140 140 
2.76 2.17 -0.33 34 34 34 
2.45 -1.09 1.24 20 20 20 
2.65 -0.35 -0.34 32 32 32 
2.53 2.88 -0.35 22 22 22 
4.52 1.3 -0.03 63 63 63 
0.76 -1.07 -0.27 22 22 22 
4.39 1.73 1.25 159 159 159 
2.73 -0.5 -0.01 27 27 27 
3.25 3.14 2.58 50 50 50 
2.68 -0.82 2.42 9 9 9 
3.13 3.11 -0.25 55 55 55 
0.51 1.68 4.72 2 2 2 
2.59 1.86 -0.32 39 39 39 
0.81 -1.98 3.51 14 14 14 
2.95 -0.56 1.11 86 86 86 
3.12 3.08 1.53 190 190 190 
2.72 -0.88 3.86 33 33 33 
2.37 -1.13 2.33 15 15 15 
2.52 -0.93 0.82 23 23 23 
1.31 1.8 -0.3 26 26 26 
3.78 0.16 1.46 62 62 62 
3.42 2.85 3.17 47 47 47 
3.03 -0.47 0.46 53 53 53 
3.02 -0.7 2.77 9 9 9 
2.2 -1.25 0.67 19 19 19 
3.12 3.15 2.28 39 39 39 
4.59 1.05 -0.29 42 42 42 
2.33 2.23 5.6 7 7 7 
4.48 1.69 0.34 69 69 69 
2.56 -1.01 1.35 29 29 29 
0.96 1.28 -0.29 25 25 25 
0.61 -1.77 -0.13 46 46 46 
3.04 -0.51 2.45 104 104 104 
2.71 3.31 2.31 39 39 39 
2.51 3.44 1.66 188 188 188 
2.09 -1.44 1.17 19 19 19 
4.8 1.06 1.77 119 119 119 
2.72 -0.17 -0.32 42 42 42 
2.25 2.59 -0.35 9 9 9 
1.48 0.22 2.31 36 36 36 
3.02 -0.5 0.36 36 36 36 
2.36 1.67 2.87 8 8 8 
1.49 -1.84 3.03 56 56 56 
4.57 1.56 -0.36 37 37 37 
3.17 3.06 3.27 72 72 72 
2.09 2.98 5.46 9 9 9 
1.01 -1.81 1.01 35 35 35 
1.41 0.47 2.81 93 93 93 
4.48 0.89 0.06 43 43 43 
1.42 0.3 2.16 156 156 156 
1.65 2.5 2.64 24 24 24 
0.52 1.36 3.32 6 6 6 
0.96 -1.8 0.77 54 54 54 
2.62 0.63 -0.32 49 49 49 
4.68 1.24 0.12 43 43 43 
2.87 -0.7 1.09 68 68 68 
2.39 1.52 -0.34 40 40 40 
1.17 -0.38 2.96 6 6 6 
3.26 -0.32 1.69 50 50 50 
1.88 -1.46 3.15 16 16 16 
4.59 1.28 1.8 171 171 171 
1.12 -1.63 5.82 255 255 255 
1.22 1.39 -0.31 34 34 34 
2.96 3.27 1.76 219 219 219 
3.98 2.16 -0.29 47 47 47 
4.03 0.4 1.02 52 52 52 
2.29 -1.02 -0.34 9 9 9 
2.69 0.38 -0.34 49 49 49 
2.34 0.8 -0.31 38 38 38 
3.16 3.12 0.48 83 83 83 
0.43 1.31 2.77 6 6 6 
2.59 0.75 -0.32 68 68 68 
4.55 0.95 0.99 121 121 121 
2.14 3.01 5.66 10 10 10 
3.86 2.28 0.07 30 30 30 
1.42 0.69 2.5 41 41 41 
2.51 -0.98 2.05 102 102 102 
2.82 -0.85 3.38 40 40 40 
2.94 -0.61 3.2 25 25 25 
0.64 -1.51 -0.31 20 20 20 
3.53 2.7 3.23 37 37 37 
4.28 1.76 0.32 40 40 40 
2.19 -0.91 -0.32 37 37 37 
2.78 -0.61 0.64 62 62 62 
0.74 -1.91 0.09 14 14 14 
1.43 -1.8 0.71 75 75 75 
1.34 1.05 2.71 6 6 6 
1.79 2.29 -0.34 40 40 40 
2.99 3.24 0.43 81 81 81 
1.94 -1.43 -0.29 20 20 20 
3.72 2.57 3.29 28 28 28 
2.75 3.47 2.9 104 104 104 
1.33 0.92 5.77 153 153 153 
2.66 -0.7 -0.2 56 56 56 
2.86 3.37 -0.16 56 56 56 
1.15 0.68 -0.25 26 26 26 
3.72 0.19 1.07 61 61 61 
4.64 1.48 0.25 75 75 75 
1.61 1.16 4.39 9 9 9 
1.3 -2.02 1.41 41 41 41 
3.81 2.35 -0.12 51 51 51 
2.19 -1.17 1.96 16 16 16 
3.18 -0.41 1.55 68 68 68 
3.33 -0.38 3.21 15 15 15 
2.6 -0.86 0.4 7 7 7 
0.27 -1.41 3.83 27 27 27 
4.12 1.59 -0.23 48 48 48 
0.45 -1.11 -0.27 21 21 21 
1.49 -0.54 2.93 13 13 13 
0.13 -1.44 3.83 40 40 40 
4.01 2.13 -0.32 26 26 26 
4.24 0.6 1.49 76 76 76 
3.89 0.31 0.24 104 104 104 
2.81 -0.84 3.79 59 59 59 
1.54 0.03 3.69 33 33 33 
0.74 -1.87 1.78 64 64 64 
2.47 3.26 5.33 8 8 8 
1.35 -0.26 -0.28 33 33 33 
4.79 1.19 1.51 143 143 143 
3.06 -0.52 1.59 102 102 102 
3.24 3.2 4.23 8 8 8 
3.66 2.51 3.32 35 35 35 
3.03 3.18 1 139 139 139 
4.47 1.19 -0.32 38 38 38 
2.97 -0.09 -0.36 62 62 62 
4.58 1.32 1.09 126 126 126 
4.67 1.48 1.74 216 216 216 
4.56 1.18 0.93 132 132 132 
1.47 0.26 3 145 145 145 
3.75 2.52 2.9 43 43 43 
4.27 0.57 1.57 110 110 110 
3.19 3.07 2.33 38 38 38 
3.35 -0.23 0.52 83 83 83 
4.46 1.68 1.53 186 186 186 
2.67 3.31 1.77 195 195 195 
2.82 -0.62 1.42 76 76 76 
2.87 3.46 1.47 123 123 123 
0.88 -2 0.71 32 32 32 
3.01 3.44 5.26 31 31 31 
1.39 0.59 2.33 27 27 27 
4.01 2.16 0.76 95 95 95 
4.27 0.66 0.79 59 59 59 
3.05 -0.41 0.79 73 73 73 
0.5 -1.16 -0.26 30 30 30 
2.3 1.68 -0.32 88 88 88 
0.83 -1.94 1.01 46 46 46 
1.61 2.54 2.76 73 73 73 
1.97 -1.38 0.73 16 16 16 
0.33 1.88 5.24 8 8 8 
1.41 2.56 4.99 4 4 4 
3.55 -0.05 1.04 97 97 97 
2.78 -0.79 3.16 25 25 25 
3.11 2.77 0.17 44 44 44 
3.93 2.23 1.72 197 197 197 
2.64 -0.95 1.54 32 32 32 
2.73 -0.6 -0.17 37 37 37 
1.33 -0.28 -0.3 32 32 32 
1.39 2.27 4.73 4 4 4 
1.64 -1.7 2.87 48 48 48 
2.31 3.08 5.58 10 10 10 
3.32 -0.24 0.67 67 67 67 
2.48 1.66 2.74 26 26 26 
1.93 -1.45 0.55 18 18 18 
2.81 -0.32 -0.33 44 44 44 
2.95 -0.06 -0.35 66 66 66 
2.79 -0.79 3.03 19 19 19 
1.29 1.68 -0.28 28 28 28 
0.43 -1.56 1.35 5 5 5 
1.95 -0.44 -0.31 36 36 36 
3.15 3.08 5.59 8 8 8 
1.88 -1.64 1.42 20 20 20 
2.1 2.1 5.62 8 8 8 
3.45 -0.1 0.15 104 104 104 
2.98 -0.53 0.79 56 56 56 
2.58 -0.28 -0.33 36 36 36 
0.95 -0.97 -0.27 25 25 25 
-0.24 -0.94 2.17 84 84 84 
4.61 0.98 1.24 126 126 126 
3.93 2.28 2.13 207 207 207 
3.01 3.29 2.03 188 188 188 
0.94 -0.68 -0.27 22 22 22 
2.63 -0.86 0 9 9 9 
1.64 -1.65 2.7 65 65 65 
4.53 1.6 1.54 187 187 187 
1.69 1.42 -0.28 29 29 29 
0.99 -1.89 1.36 41 41 41 
2.65 3.46 5.36 8 8 8 
3.16 3.08 0.71 102 102 102 
1.94 -0.49 -0.28 33 33 33 
4.09 2.05 0.84 139 139 139 
1 -1.77 0.88 33 33 33 
1.36 -0.86 -0.28 38 38 38 
0.27 1.24 2.64 9 9 9 
2.64 -0.83 0.61 7 7 7 
3.51 2.45 0.32 56 56 56 
3.16 3.19 3.7 58 58 58 
3.57 2.63 1.18 167 167 167 
1.29 1.08 -0.27 33 33 33 
3.81 1.61 -0.39 33 33 33 
2.88 3.36 -0.22 58 58 58 
3.49 2.71 0.87 129 129 129 
2.86 2.38 4.29 24 24 24 
4.01 1.78 0.63 18 18 18 
4.46 0.87 0.06 49 49 49 
3.32 -0.33 1.47 56 56 56 
4.79 1.18 1.25 131 131 131 
1.34 2.37 4.75 9 9 9 
2.69 -0.72 0.65 71 71 71 
3.04 -0.46 1.49 83 83 83 
1.18 0.27 -0.27 45 45 45 
2.91 3.33 -0.31 47 47 47 
3.26 3.15 5.64 10 10 10 
3.79 0.25 0.81 66 66 66 
3.1 3.2 2.18 255 255 255 
3.66 0.05 1.12 75 75 75 
3.48 2.78 3.17 44 44 44 
4.43 1.75 1.64 187 187 187 
3.95 2.26 1.81 199 199 199 
0.71 -1.57 -0.31 23 23 23 
3.26 2.9 0.69 42 42 42 
1.64 0.3 1.35 9 9 9 
2.78 -0.7 1.44 86 86 86 
3.5 2.72 0.58 46 46 46 
1.66 2.46 2.78 11 11 11 
0.99 -1.92 2.36 6 6 6 
3.69 0.23 -0.34 57 57 57 
3.25 -0.26 0.68 84 84 84 
1.67 -1.54 -0.29 16 16 16 
1.37 -1.86 0.69 39 39 39 
3.15 -0.07 -0.33 54 54 54 
3.39 0.16 -0.36 69 69 69 
1.63 -1.85 -0.09 3 3 3 
2.39 -0.54 -0.3 44 44 44 
3.28 -0.25 0.77 85 85 85 
3.84 2.32 1.73 197 197 197 
2.02 -1.29 2.04 118 118 118 
2.7 3.54 4.39 13 13 13 
2.71 3.52 4.62 12 12 12 
3.99 2.23 1.82 194 194 194 
1.52 0.85 -0.31 34 34 34 
1.86 -0.5 4.31 22 22 22 
3.42 2.77 0.1 35 35 35 
1.05 0.37 -0.28 24 24 24 
4.37 0.73 1.4 76 76 76 
1.72 -1.73 -0.33 6 6 6 
2.76 3.3 4.84 12 12 12 
0.91 -1.95 1.2 42 42 42 
2.8 -0.67 1.9 103 103 103 
1.27 -2.01 2.22 6 6 6 
1.17 -2.07 1.48 30 30 30 
4.22 1.68 0.51 42 42 42 
1.87 -0.33 -0.28 33 33 33 
1.61 0.34 -0.29 45 45 45 
2.07 -0.32 -0.31 30 30 30 
0.78 2.27 5.2 12 12 12 
2.45 -1.02 0.56 22 22 22 
2.71 3.54 3.54 15 15 15 
2.45 -1.06 2.89 16 16 16 
2.86 3.42 1.46 121 121 121 
1.21 -2.2 5.23 12 12 12 
4.34 1.8 -0.17 58 58 58 
3.9 0.34 0.59 76 76 76 
3.03 3.26 0.28 67 67 67 
1.84 -0.89 -0.3 32 32 32 
2.74 0.03 -0.33 43 43 43 
3.61 0.2 -0.35 51 51 51 
0.37 -1.48 1.82 56 56 56 
3.8 2.38 1.15 164 164 164 
2.57 -0.86 1.27 6 6 6 
3.65 2.27 0.48 23 23 23 
1.79 0.92 -0.3 32 32 32 
3.73 0.08 1.38 60 60 60 
1.33 2.19 -0.29 28 28 28 
1.72 -0.5 2.93 18 18 18 
4.69 1.42 1.84 197 197 197 
1.39 -1.8 1.08 43 43 43 
4.16 0.75 -0.39 36 36 36 
3.41 -0.11 1.28 68 68 68 
3.12 3.3 3.3 114 114 114 
3.25 3.04 1.28 162 162 162 
1.06 -0.29 -0.27 35 35 35 
1.83 -1.63 -0.05 6 6 6 
1.55 0.67 2.84 46 46 46 
2.03 2.85 5.36 6 6 6 
2.68 3.42 1.51 76 76 76 
0.53 -1.65 3.91 8 8 8 
1.49 0.01 -0.29 47 47 47 
3.86 2.32 1.18 164 164 164 
1.74 1.82 -0.31 41 41 41 
3.69 2.2 0.85 16 16 16 
1.48 0.81 3.11 71 71 71 
3.27 2.98 4.96 8 8 8 
3.83 2.37 0.92 135 135 135 
3.8 1.84 -0.38 26 26 26 
4.61 1.37 -0.08 59 59 59 
3.07 -0.52 0.67 73 73 73 
4.61 0.94 1.78 153 153 153 
3.16 3.03 0.99 133 133 133 
2.22 -0.13 -0.31 38 38 38 
4.01 2.16 0.85 138 138 138 
0.1 -1.34 3.92 28 28 28 
3.25 3.21 5.6 8 8 8 
1.55 0.59 3.13 80 80 80 
1.99 1.48 4.36 17 17 17 
3.19 1.87 -0.36 29 29 29 
0.84 -1.98 0.97 43 43 43 
4.63 1.47 1.56 183 183 183 
0.84 -1.6 -0.31 17 17 17 
2.46 -0.95 0.86 26 26 26 
3.65 0.11 0.15 99 99 99 
3.21 3.05 1.16 151 151 151 
3 3.42 2.6 253 253 253 
3.49 -0.3 2.92 22 22 22 
1.69 0.08 3.61 149 149 149 
0.79 0.91 -0.26 19 19 19 
4.22 1.51 -0.01 51 51 51 
3.71 2.44 -0.21 26 26 26 
3.28 -0.29 1.09 76 76 76 
1.92 -0.35 5.55 12 12 12 
1.61 -1.7 2.77 38 38 38 
1.19 2.02 3.51 14 14 14 
2.21 -1.21 0.04 19 19 19 
1.31 -1.19 -0.3 20 20 20 
1.73 0.25 3.5 162 162 162 
1.49 -1.82 1.64 5 5 5 
4.53 0.88 0.76 110 110 110 
2.74 -0.73 1.87 104 104 104 
0.75 -1 -0.27 39 39 39 
4.66 1.2 -0.25 20 20 20 
1.68 -1.82 2.89 34 34 34 
0.52 -1.55 4.32 20 20 20 
2.67 3.46 1.55 91 91 91 
2.47 3.35 5.65 17 17 17 
4.63 1.54 1.5 187 187 187 
1.34 -2.01 1.34 32 32 32 
1.54 0 -0.29 34 34 34 
0.91 -2.11 3.79 13 13 13 
3.22 -0.42 5.54 15 15 15 
4.48 1.61 1.41 178 178 178 
2.12 -1.39 3.32 11 11 11 
2.68 3.52 4.96 7 7 7 
2.58 -0.9 1.12 7 7 7 
1.93 -1.38 3 21 21 21 
1.26 -2 1.24 35 35 35 
0.96 -1.64 0.04 20 20 20 
3.23 -0.37 3.8 48 48 48 
2.95 3.44 4.67 24 24 24 
4.79 1.15 1.59 136 136 136 
2.71 3.44 2.32 41 41 41 
3 3.28 1.37 163 163 163 
1.46 -1.9 1.3 38 38 38 
2.78 2.41 4.56 6 6 6 
1.19 -2.12 2.81 4 4 4 
1.43 1.65 -0.3 28 28 28 
1.57 -0.64 3.15 11 11 11 
2.15 1.89 2.76 19 19 19 
2.91 -0.72 2.87 22 22 22 
2.03 2.92 5.48 4 4 4 
-0.03 -1.14 2.26 29 29 29 
2.52 1.89 4.36 6 6 6 
4.15 2.06 2.01 163 163 163 
4.5 0.87 1.52 139 139 139 
3.3 -0.17 0.72 70 70 70 
3.73 2.56 3.39 33 33 33 
1.27 -1.94 0.34 40 40 40 
2.75 1.95 -0.33 11 11 11 
4.32 1.89 1.82 188 188 188 
2.94 -0.62 1.61 101 101 101 
0.83 -2.09 2.69 2 2 2 
1.61 2.16 -0.3 33 33 33 
2.01 -0.7 3.64 20 20 20 
1.42 -1.85 2.62 255 255 255 
1.15 -2.01 1.42 29 29 29 
2.02 1.37 4.39 4 4 4 
3.23 0.97 -0.36 47 47 47 
2.01 -0.02 3.18 19 19 19 
2.11 -1.27 0.7 20 20 20 
2.23 3.17 -0.35 22 22 22 
2.78 -0.62 0.08 29 29 29 
3.29 2.7 0.85 99 99 99 
1.28 0.79 -0.29 29 29 29 
4.35 1.8 1.12 167 167 167 
2.15 -0.67 -0.3 35 35 35 
3.97 2.28 2.08 171 171 171 
3.36 2.95 3.5 29 29 29 
2.11 -1.39 2.48 12 12 12 
1.09 -1.97 2.81 9 9 9 
2.18 -1.16 2.1 18 18 18 
3.72 2.2 0.71 101 101 101 
3.26 3.07 4.03 20 20 20 
1.85 -1.63 1.78 9 9 9 
4.18 1.7 0.35 26 26 26 
1 -1.87 4.26 33 33 33 
1.89 0.54 -0.31 36 36 36 
3.64 -0.23 2.98 26 26 26 
3.08 2.64 -0.33 20 20 20 
1.76 -1.79 2.78 39 39 39 
2.08 -1.46 3.24 17 17 17 
4.18 1.77 0.75 122 122 122 
2.9 3.42 1.16 139 139 139 
1.16 0.59 4.38 13 13 13 
3.68 0.68 -0.34 55 55 55 
1.73 1.02 -0.31 35 35 35 
0.9 -1.97 0.53 33 33 33 
4.3 1.81 0.6 46 46 46 
3.2 2.98 -0.19 57 57 57 
4.61 0.96 1.23 128 128 128 
1.11 -1.95 4.09 44 44 44 
3.08 3.16 -0.36 65 65 65 
3.91 1.91 0.85 95 95 95 
1.06 -1.96 3.11 39 39 39 
3.54 2.64 1.41 202 202 202 
1.1 -1.35 -0.27 79 79 79 
3.24 3.3 5.48 6 6 6 
2.61 3.51 1.07 83 83 83 
4.54 1.29 0.58 90 90 90 
1.45 -1.92 1.5 38 38 38 
3.02 -0.53 0.84 80 80 80 
0.38 -1.5 1.54 58 58 58 
0.94 -1.84 1.18 48 48 48 
1.44 0.3 2.65 114 114 114 
2.02 -1.54 3.18 14 14 14 
2.9 3.41 5.24 255 255 255 
3.53 2.67 -0.1 58 58 58 
1.67 0.26 3.1 41 41 41 
3.28 2.94 4.37 16 16 16 
0.8 -1.9 4.02 17 17 17 
1.62 1.13 -0.28 31 31 31 
0.48 0.8 2.77 10 10 10 
2.06 -1.3 2.75 8 8 8 
1.29 -1.91 0.84 42 42 42 
1.62 -0.34 -0.3 31 31 31 
4.51 0.86 0.7 105 105 105 
0.15 0.95 2.88 14 14 14 
3 -0.31 -0.29 28 28 28 
4.08 2.06 1.54 185 185 185 
1.76 2.61 5.61 5 5 5 
4.56 1.31 0.52 90 90 90 
4.61 1.36 0.28 79 79 79 
2.2 2.14 5.6 8 8 8 
3.52 -0.07 1.19 59 59 59 
1.53 0.45 3.7 127 127 127 
2.55 -1 3.17 26 26 26 
2.9 -0.59 2.05 48 48 48 
1.31 1.12 -0.27 33 33 33 
2.83 -0.72 3.45 56 56 56 
3.32 3.03 2.19 255 255 255 
2.35 2.23 5.6 8 8 8 
1.2 0.37 -0.28 29 29 29 
2.99 3.23 0.47 76 76 76 
3.13 3.13 0.65 95 95 95 
1.95 1.99 5.72 9 9 9 
0.98 -1.99 3.44 11 11 11 
0.38 -1.55 3.84 29 29 29 
3.16 -0.53 2.57 100 100 100 
1.56 2.3 3.86 19 19 19 
4.55 1.58 0.85 136 136 136 
2.89 3.42 2.76 255 255 255 
2.41 1.56 -0.33 47 47 47 
1.74 1.2 4.31 9 9 9 
1.2 -2.09 2.5 7 7 7 
3.08 -0.63 3.7 119 119 119 
3.29 -0.21 1.28 78 78 78 
1.13 -1.03 -0.28 22 22 22 
2.63 3.47 1.5 139 139 139 
3.03 -0.6 1.66 106 106 106 
3.03 2.64 4.28 16 16 16 
1.95 -1.59 3.42 10 10 10 
4.21 0.65 0.54 52 52 52 
0.72 -1.83 0.98 39 39 39 
1.43 0.94 3.17 5 5 5 
1.84 -1.5 3.23 18 18 18 
1.49 0.79 3.01 26 26 26 
2.97 3.34 4.07 15 15 15 
4.15 1.97 0.52 35 35 35 
2.91 3.43 5.14 54 54 54 
3.21 1.69 -0.34 32 32 32 
4.67 1.08 -0.24 47 47 47 
4.57 1.37 0 63 63 63 
2.58 -0.91 0.96 7 7 7 
0.87 -2.04 1.49 41 41 41 
0.29 -1.31 2.48 18 18 18 
1.01 -0.09 2.77 15 15 15 
3.33 -0.31 1.85 140 140 140 
1.65 -0.74 4.53 12 12 12 
4.61 1.39 0.57 98 98 98 
1.36 0.53 2.06 58 58 58 
0.81 -1.58 -0.29 17 17 17 
3.15 0.99 -0.34 46 46 46 
4.63 1.47 -0.08 40 40 40 
3.09 3.15 1.03 153 153 153 
2.91 3.41 2.78 255 255 255 
1.62 1.05 4.44 14 14 14 
3.28 -0.2 1.01 80 80 80 
3.72 0.37 -0.37 59 59 59 
3.8 2.38 0.33 62 62 62 
2.11 -1.45 3.45 12 12 12 
3.38 2.87 4.2 19 19 19 
2.62 -0.77 0.86 26 26 26 
1.34 0.53 1.61 26 26 26 
2.73 -0.75 1.07 81 81 81 
1.21 -2.13 3.7 14 14 14 
2.64 1.32 -0.33 46 46 46 
1.18 -0.74 4.38 39 39 39 
2.7 3.54 5.11 15 15 15 
4.68 1.46 1.02 139 139 139 
3.75 2.51 1.99 196 196 196 
3.54 -0.03 0.93 80 80 80 
3.26 2.7 0.48 83 83 83 
0.7 0.94 -0.27 27 27 27 
2.89 3.35 0.14 73 73 73 
3.74 2.41 0.21 31 31 31 
3.04 -0.4 0.51 69 69 69 
0.23 1.24 2.15 6 6 6 
2.63 3.48 0.95 99 99 99 
3.05 -0.43 0.24 28 28 28 
3.29 2.91 0.19 39 39 39 
1.56 0.73 2.84 36 36 36 
2.31 2.34 5.47 5 5 5 
4.5 0.87 1.36 125 125 125 
0.98 -2.04 4.03 13 13 13 
3.32 -0.25 0.52 83 83 83 
1.08 -0.93 4.36 17 17 17 
3.18 3.17 3.27 82 82 82 
2.6 1.22 -0.34 53 53 53 
4.69 1.19 0.28 36 36 36 
2.64 3.44 0.56 66 66 66 
1.62 0.93 -0.29 36 36 36 
2.81 3.46 4.5 12 12 12 
1.6 0.35 2.93 128 128 128 
3.13 3.09 1.2 160 160 160 
3.16 3.17 1.61 190 190 190 
0.37 -1.58 1.31 49 49 49 
4.53 0.88 1.43 136 136 136 
3.78 0.26 -0.26 89 89 89 
2.27 -1.28 0.65 17 17 17 
0.8 1.33 -0.28 26 26 26 
3.22 3.15 4.98 10 10 10 
1.98 2.11 -0.3 48 48 48 
1.35 -0.9 4.47 24 24 24 
4.21 2 1.76 187 187 187 
4.71 1.13 0.01 57 57 57 
1.01 -0.39 -0.27 32 32 32 
1.56 0.42 2.58 17 17 17 
1.51 2.49 -0.32 64 64 64 
2.11 1.69 -0.3 42 42 42 
2.67 -0.72 3.38 74 74 74 
4.3 1.3 -0.39 37 37 37 
4.54 0.93 1.08 129 129 129 
3.65 2.55 0.87 178 178 178 
1.68 1.1 4.37 10 10 10 
3.38 -0.26 2.01 165 165 165 
3.14 3.08 2.19 255 255 255 
0.89 -0.82 -0.28 21 21 21 
3.32 -0.28 1.58 58 58 58 
1.16 1.56 -0.27 28 28 28 
1.63 0.6 1.4 23 23 23 
2.09 3.02 5.42 7 7 7 
2.15 1.13 -0.33 50 50 50 
2.97 3.29 3.47 110 110 110 
2.04 -0.49 -0.31 29 29 29 
2.07 1.62 -0.3 51 51 51 
2.77 -0.96 3.73 35 35 35 
2.7 -0.51 -0.11 26 26 26 
2.74 -0.7 1.22 84 84 84 
4.12 1.65 -0.31 41 41 41 
1.45 0.66 1.51 25 25 25 
0.44 -1.48 1.21 53 53 53 
2.71 2.62 5.58 9 9 9 
3.04 3.17 0.8 108 108 108 
1.89 -1.51 1.58 26 26 26 
0.46 -1.03 -0.27 18 18 18 
3.17 3.11 2.99 79 79 79 
3.62 0.07 1.05 61 61 61 
4.24 0.65 1.01 67 67 67 
2.34 1.66 2.74 15 15 15 
1.43 -1.91 1.13 35 35 35 
2.34 0.71 -0.31 43 43 43 
0.94 -1.85 0.85 41 41 41 
1.26 -1.99 0.64 30 30 30 
1.79 -0.54 -0.3 33 33 33 
2.8 -0.71 1.2 108 108 108 
2.28 3.02 5.55 7 7 7 
3.48 -0.04 -0.14 99 99 99 
4.05 2.1 1.74 196 196 196 
0.91 -1.16 -0.28 24 24 24 
2.61 -0.81 -0.29 24 24 24 
3.85 2.39 2.93 63 63 63 
4.54 1.32 0.29 79 79 79 
3.32 1.18 -0.38 43 43 43 
0.25 -1.32 0.1 58 58 58 
3.46 -0.22 2.63 103 103 103 
3.99 2.08 0.68 34 34 34 
2.51 -1 2.71 22 22 22 
3.12 2.39 -0.35 23 23 23 
3.1 -0.58 3.05 36 36 36 
1.56 0.61 3.45 38 38 38 
3.52 -0.33 2.95 158 158 158 
3.44 -0.11 1.65 85 85 85 
2.34 -1.13 0.65 23 23 23 
2.75 -0.81 3.52 59 59 59 
3 3.23 0.06 82 82 82 
3 -0.37 -0.06 27 27 27 
3.65 0.05 0.85 73 73 73 
3.22 3.06 1.12 151 151 151 
2.07 -1.48 3.52 10 10 10 
3.21 -0.29 0.85 78 78 78 
1.17 -0.96 5.53 9 9 9 
2.82 -0.59 0.11 30 30 30 
3.89 2.34 2.14 214 214 214 
3.39 -0.28 2.14 159 159 159 
3.99 1.92 0.77 7 7 7 
3.25 3.03 1.19 153 153 153 
1.39 0.73 2.14 22 22 22 
3.45 0.04 -0.36 32 32 32 
3.8 2.37 1.64 205 205 205 
1.86 2.37 -0.32 42 42 42 
2.65 0.54 -0.34 65 65 65 
2.96 -0.56 0.9 83 83 83 
1.44 -1.91 0.98 36 36 36 
2.95 3.42 2.11 255 255 255 
2.36 0.48 -0.31 44 44 44 
0.83 -2.01 0.02 35 35 35 
3.14 -0.44 3.64 31 31 31 
0.52 1.33 -0.28 21 21 21 
1.91 -0.77 -0.29 35 35 35 
0.9 0.27 2.94 27 27 27 
1.58 0.75 3.25 48 48 48 
2.73 2.3 4.39 30 30 30 
1.58 0.98 2.22 17 17 17 
1.35 -1.94 0.58 31 31 31 
3.59 2.58 -0.01 59 59 59 
1.68 1.31 -0.3 33 33 33 
4.22 0.66 -0.06 58 58 58 
2.94 -0.52 0.82 67 67 67 
2.15 -0.39 -0.3 35 35 35 
4.78 1.21 0.81 104 104 104 
0.87 -2.01 0.56 34 34 34 
1.85 -1.64 1.81 11 11 11 
0.81 -1.84 -0.07 39 39 39 
2.3 2.29 5.62 9 9 9 
0.87 -1.9 1.45 43 43 43 
2.97 3.29 0.61 82 82 82 
3.13 3.13 5.65 6 6 6 
3.02 -0.62 2.84 21 21 21 
2.96 3.47 4.05 10 10 10 
2.89 2.87 -0.34 28 28 28 
2.19 1.26 -0.31 56 56 56 
2.14 3.42 4.07 49 49 49 
3.93 0.41 -0.35 82 82 82 
3.96 0.38 0.6 75 75 75 
4.57 1.21 1.01 143 143 143 
3.72 0.42 -0.38 64 64 64 
3.12 3.07 0.53 95 95 95 
3.22 2.56 -0.3 60 60 60 
1.6 1.23 2.77 45 45 45 
0.18 1.68 5.25 13 13 13 
3.25 -0.29 0.5 79 79 79 
2.91 -0.68 1.27 75 75 75 
1.75 -1.44 -0.26 19 19 19 
2.88 -0.82 2.77 21 21 21 
3.19 3.12 2.51 52 52 52 
0.71 1.16 -0.27 25 25 25 
2.15 -1.38 0.87 17 17 17 
2.03 -1.49 2.71 17 17 17 
0.85 -2.04 1.99 44 44 44 
1.96 2.73 5.37 5 5 5 
3.84 2.38 1.98 209 209 209 
3.04 -0.49 2.44 95 95 95 
3.13 0.28 -0.36 89 89 89 
0.52 -1.67 3.91 9 9 9 
3.61 0 1.26 60 60 60 
3.85 2.35 1.1 156 156 156 
1.55 0.68 2.66 41 41 41 
2.72 -0.9 1.21 8 8 8 
2.6 0.13 -0.31 40 40 40 
0.77 -1.91 1.94 77 77 77 
0.89 -1.9 3.9 15 15 15 
1.76 -0.35 3.12 10 10 10 
3.34 -0.18 0.42 101 101 101 
2.7 3.46 1.42 132 132 132 
3.72 0.23 0.3 101 101 101 
1.87 2.18 2.78 15 15 15 
3.03 3.38 3.31 141 141 141 
3.83 0.25 1.14 60 60 60 
1.62 0.33 2.82 117 117 117 
2.83 -0.64 0.31 33 33 33 
2.58 -1.04 1.56 22 22 22 
1.58 2.52 2.69 56 56 56 
4.54 1.6 1.27 161 161 161 
2.82 -0.92 3.31 32 32 32 
3.02 3.25 1.19 150 150 150 
2.69 3.33 2.63 255 255 255 
1.38 1.44 5.69 3 3 3 
2.62 0.57 -0.3 46 46 46 
4.51 0.91 0.47 80 80 80 
2.07 -1.32 2.61 20 20 20 
3.86 2.35 3.02 78 78 78 
2.8 3.46 0.48 58 58 58 
0.39 -1.57 3.85 15 15 15 
0.74 -1.87 3.96 7 7 7 
1.39 -1.91 0.83 32 32 32 
3.27 -0.34 1.45 72 72 72 
1.23 -1.96 2.54 62 62 62 
1.76 1.25 -0.3 32 32 32 
3.49 -0.26 2.96 18 18 18 
2.59 3.49 5.08 14 14 14 
1.44 0.18 2.24 29 29 29 
1.82 1.34 3.18 6 6 6 
4.42 1.75 1.42 171 171 171 
3.77 0.23 1.31 58 58 58 
3.13 -0.6 2.77 9 9 9 
3.36 2.84 -0.01 35 35 35 
0.45 -1.53 3.28 31 31 31 
3.55 0.06 0.36 106 106 106 
3.03 -0.55 2.97 9 9 9 
2.88 2.27 4.36 9 9 9 
0.85 -2.16 4.35 9 9 9 
3.9 0.28 1.85 63 63 63 
0.76 -1.9 4.02 11 11 11 
0.93 -1.85 3.81 15 15 15 
1.59 -1.87 1.11 4 4 4 
2.35 -1.17 0.83 23 23 23 
1.81 -1.55 1.35 18 18 18 
3.97 1.91 0.37 45 45 45 
1.94 2.13 -0.34 31 31 31 
0.74 -1.55 -0.29 18 18 18 
2.83 1.94 -0.33 42 42 42 
1.8 -1.7 2.74 27 27 27 
1.4 -1.81 1.18 47 47 47 
3.71 0.18 1.23 60 60 60 
1.43 0.42 3.03 114 114 114 
3.07 3.27 2.8 151 151 151 
2.2 -1.23 0.93 19 19 19 
3.28 3.01 1.73 200 200 200 
2.86 3.43 2.84 55 55 55 
3.84 2.39 2.82 64 64 64 
3.3 -0.32 2.04 103 103 103 
2.73 2.3 -0.34 30 30 30 
3.11 -0.32 0.08 30 30 30 
2.61 3.3 -0.21 40 40 40 
1.88 2.33 2.78 22 22 22 
1.66 -0.89 -0.29 32 32 32 
4.6 0.96 1.23 124 124 124 
0.92 -0.88 -0.28 20 20 20 
4.33 0.7 0.84 54 54 54 
2.63 3.3 0.55 77 77 77 
2.7 -0.68 0.15 55 55 55 
4.44 1.74 1.67 192 192 192 
3.23 3.04 3.69 35 35 35 
3.46 2.78 0.66 48 48 48 
4.69 1.24 -0.11 34 34 34 
3.72 2.53 3.23 40 40 40 
4.62 1.53 1.04 149 149 149 
2.34 1.82 4.38 17 17 17 
3.36 1.21 -0.35 37 37 37 
4.18 1.71 0.75 87 87 87 
3.5 2.79 3.09 39 39 39 
2.45 3.32 5.47 17 17 17 
3.97 2.29 2.84 68 68 68 
4.18 1.96 1.08 162 162 162 
2.32 0.46 -0.3 46 46 46 
1.58 -1.88 1.2 5 5 5 
1.13 -2.06 0.74 88 88 88 
3.12 3.15 0.91 118 118 118 
2.92 1.96 -0.32 33 33 33 
0.25 -1.57 3.8 27 27 27 
3 3.37 3.57 86 86 86 
3.98 2.28 3.58 34 34 34 
2.64 -0.77 0.34 11 11 11 
3.53 2.75 3.2 46 46 46 
4.24 1.84 0.31 60 60 60 
4.03 2.19 1.97 187 187 187 
3.84 2.33 0.07 29 29 29 
3.39 -0.16 0.88 54 54 54 
3.69 0.12 1.15 65 65 65 
4.09 0.48 0.89 68 68 68 
2.91 3.44 4.43 255 255 255 
0.95 -1.9 1.33 81 81 81 
2.64 3.53 5.09 19 19 19 
3.92 0.49 -0.33 47 47 47 
2.36 -1.21 1.7 8 8 8 
3.54 2.71 3.09 40 40 40 
2.09 -1.47 1.53 24 24 24 
0.99 -1.86 1.05 44 44 44 
2.66 3.31 0.89 118 118 118 
3.14 3.21 4.33 11 11 11 
2.09 -1.31 2.71 23 23 23 
3.01 2.08 -0.34 27 27 27 
2.89 3.41 0.99 133 133 133 
2.67 3.5 1.84 191 191 191 
2.46 -1.12 1.52 26 26 26 
0.74 1.47 -0.29 24 24 24 
2.63 3.3 0.48 69 69 69 
1.78 0.61 5.49 26 26 26 
2.86 -0.55 0.05 26 26 26 
0.74 -1.89 2.18 47 47 47 
1.58 -0.64 3.14 13 13 13 
3.08 3.24 1.4 173 173 173 
1.92 -0.44 2.93 23 23 23 
2.4 0.53 -0.32 47 47 47 
2.64 -0.85 2.08 85 85 85 
1.4 2.57 5.14 5 5 5 
3.19 3.18 3.51 51 51 51 
4.55 0.96 0.23 69 69 69 
2.96 3.38 1.56 178 178 178 
2.03 -0.12 2.75 29 29 29 
3.97 0.35 0.81 52 52 52 
2.81 -0.71 2.96 29 29 29 
2.09 -1.35 0.84 21 21 21 
3.59 -0.03 1.3 58 58 58 
1.97 -1.42 1.03 20 20 20 
3.23 -0.53 2.89 14 14 14 
3.97 0.33 0.91 58 58 58 
1.52 -1.87 1.39 3 3 3 
3.26 2.92 4.6 9 9 9 
2.95 -0.51 0.46 29 29 29 
3.16 -0.57 3.63 75 75 75 
1.85 -1.52 1.24 20 20 20 
2.65 3.46 4.94 6 6 6 
1.76 -1.54 1.88 19 19 19 
3.12 -0.4 0.46 93 93 93 
3.25 -0.43 2.89 18 18 18 
2.64 3.32 1.28 121 121 121 
1.4 2.28 -0.31 31 31 31 
4.55 1.35 -0.16 59 59 59 
0.96 -2.03 4.08 14 14 14 
1.27 1.19 5.57 5 5 5 
4.78 1.19 0.72 89 89 89 
0.5 -1.68 3.83 8 8 8 
1.76 0.23 -0.3 41 41 41 
2.94 3.43 4.23 17 17 17 
4.02 2.15 1.54 186 186 186 
3.82 0.29 -0.26 92 92 92 
1.17 1.31 5.69 8 8 8 
3.06 -0.67 2.43 18 18 18 
2.62 3.53 0.44 42 42 42 
2.67 3.29 1.63 158 158 158 
3.61 0.68 -0.34 53 53 53 
4.54 1.21 0.46 47 47 47 
2.67 -0.94 0.73 7 7 7 
1.05 -1.82 4.02 18 18 18 
4.67 1.41 0.6 105 105 105 
3.58 2.61 0.26 69 69 69 
2.17 -1.25 0.5 21 21 21 
1 1.23 -0.29 26 26 26 
2.96 3.47 4.07 15 15 15 
1.64 -1.84 0 5 5 5 
0.73 -1.54 -0.3 32 32 32 
2.8 3.4 4.57 13 13 13 
2.75 -0.68 1.29 80 80 80 
3.98 2.17 0.64 50 50 50 
3.66 0.06 0.9 76 76 76 
4.39 1.75 0.52 47 47 47 
3.49 -0.17 1.93 187 187 187 
3.12 3.17 1.18 150 150 150 
3.23 2.99 4.31 4 4 4 
2.5 0.69 -0.33 47 47 47 
4.04 1.76 0.07 35 35 35 
3.2 -0.3 0.44 41 41 41 
3.19 3.27 4.17 8 8 8 
2.66 -0.9 0.89 10 10 10 
1.73 1.5 -0.31 30 30 30 
4.07 1.53 -0.37 28 28 28 
0.64 -1.8 3.21 10 10 10 
1.02 -2 3.97 15 15 15 
1.53 0.58 2.48 18 18 18 
1.26 -0.28 2.74 14 14 14 
2.25 3.14 -0.33 21 21 21 
1.46 0.18 2.4 43 43 43 
3.42 2.78 -0.12 59 59 59 
3.23 3.01 2.09 201 201 201 
2.37 2.39 5.59 8 8 8 
3 -0.45 0.96 81 81 81 
1.43 0.38 -0.29 37 37 37 
3.13 -0.4 0.47 72 72 72 
2.7 -0.78 1.52 85 85 85 
4.65 1.48 0.43 91 91 91 
2.99 -0.51 1.19 84 84 84 
3.3 2.95 3.93 35 35 35 
4.05 1.36 -0.34 28 28 28 
2.22 2.58 -0.3 30 30 30 
3.38 -0.16 0.28 99 99 99 
4.67 1.19 -0.16 32 32 32 
4.42 1.71 1.19 161 161 161 
3.13 3.14 2.69 122 122 122 
2.54 0.42 -0.32 55 55 55 
4.62 1.29 0.94 117 117 117 
2 -1.51 2.98 18 18 18 
2.4 -1.09 2 85 85 85 
0.71 -1.94 2.15 37 37 37 
0.88 -1.94 0.57 39 39 39 
1.99 0.62 -0.28 40 40 40 
1.63 0.87 2.85 58 58 58 
2.82 -0.61 1.05 78 78 78 
1.54 0.29 1.49 22 22 22 
3.19 3.2 2.88 49 49 49 
3.46 -0.07 -0.32 88 88 88 
2.94 3.3 -0.23 57 57 57 
3.65 2.61 2.77 51 51 51 
4.29 0.7 0.11 55 55 55 
2.62 1.48 -0.35 44 44 44 
2.86 3.35 -0.29 80 80 80 
1.71 2.57 -0.34 34 34 34 
3.02 3.28 0.75 106 106 106 
3.11 2.88 0.41 71 71 71 
4.78 1.18 1.16 153 153 153 
3.75 2.45 3.19 45 45 45 
3.87 0.27 0.79 57 57 57 
2.77 -0.72 -0.34 48 48 48 
3.17 3.14 3.4 69 69 69 
3.89 0.31 0.32 101 101 101 
2.64 3.45 1.7 155 155 155 
1.15 0.76 4.34 9 9 9 
1.9 -0.03 -0.31 48 48 48 
2.19 -0.07 2.67 26 26 26 
2.25 3.24 0.42 62 62 62 
4.22 1.93 -0.08 72 72 72 
0.85 -2.07 2.57 5 5 5 
2.57 3.51 0.06 34 34 34 
2.43 -1.07 1.9 55 55 55 
4.53 1.32 0.11 64 64 64 
3.15 3.11 4.03 12 12 12 
0.87 -2.03 1.3 44 44 44 
0.89 -1.96 0.69 32 32 32 
1.07 -0.62 -0.29 28 28 28 
1.89 2.01 5.73 11 11 11 
3.04 2.08 -0.37 31 31 31 
3.95 0.37 0.17 92 92 92 
2.61 0.12 -0.33 44 44 44 
4.28 0.94 -0.39 34 34 34 
4.05 2.13 1.08 158 158 158 
3.03 3.28 3.29 128 128 128 
3.98 0.37 1.57 66 66 66 
0.4 1.02 2.78 6 6 6 
2.71 2.34 4.56 7 7 7 
0.29 -1.42 1.68 61 61 61 
2.91 3.47 4.97 20 20 20 
3.07 3.14 0.01 60 60 60 
3.1 -0.48 3.84 59 59 59 
2.91 3.46 4.49 22 22 22 
4.09 1.7 0.03 57 57 57 
2.66 -0.74 0.45 66 66 66 
1.27 -0.74 -0.29 30 30 30 
1.66 -0.76 5.71 9 9 9 
4.3 0.92 -0.38 32 32 32 
1.46 0.79 2.81 22 22 22 
1.3 2.28 4.87 12 12 12 
4.64 1.31 1.37 148 148 148 
3.62 2.63 2.67 32 32 32 
2.53 -0.95 1.15 31 31 31 
1.26 -2.02 1.07 35 35 35 
2.24 -1.3 1.49 27 27 27 
2.9 -0.81 3.02 18 18 18 
2.98 3.49 4.62 7 7 7 
2.3 -0.12 2.98 21 21 21 
1.98 2.74 5.49 6 6 6 
2.84 -0.46 -0.33 28 28 28 
3.05 3.53 4.94 4 4 4 
1.72 -0.39 2.95 13 13 13 
1.21 -2.05 1.9 34 34 34 
2.5 3.32 5.38 20 20 20 
2.82 -0.74 3.02 24 24 24 
2.68 -0.87 3.5 36 36 36 
1.78 -1.69 1.89 20 20 20 
3.78 2.43 1.38 174 174 174 
3.04 -0.55 1.01 71 71 71 
1.2 -2.07 0.89 27 27 27 
1.7 1.32 2.77 10 10 10 
2.7 3.54 4.07 22 22 22 
4.03 1.87 0.82 109 109 109 
3.57 2.75 3.12 45 45 45 
1.2 2.05 4.86 14 14 14 
2.06 -1.38 -0.06 19 19 19 
4.11 0.45 1.89 140 140 140 
2.42 0.11 -0.3 45 45 45 
2.06 1.04 -0.32 45 45 45 
2.6 2.46 5.59 7 7 7 
2.96 -0.76 2.78 17 17 17 
1.36 -0.97 4.35 26 26 26 
4.3 0.66 1.18 77 77 77 
1.39 0.46 2.72 89 89 89 
2.43 3.21 5.38 6 6 6 
3.41 -0.34 3.15 31 31 31 
3.77 2.41 0.3 52 52 52 
0.2 -1.36 3.43 32 32 32 
3.4 2.92 3.55 30 30 30 
4.07 2.1 1.87 201 201 201 
1.48 -0.31 -0.27 44 44 44 
1.34 0.78 2.8 12 12 12 
1.32 0.45 1.76 36 36 36 
1.44 -1.92 3.92 15 15 15 
3.86 0.31 -0.11 102 102 102 
1.39 -1.91 1.15 38 38 38 
1.79 2.24 2.8 40 40 40 
4.59 1.49 0.64 119 119 119 
1.38 -1.83 0.53 35 35 35 
1.94 1.67 5.75 8 8 8 
3.05 0.91 -0.32 55 55 55 
3.54 2.63 0.7 51 51 51 
0.44 -1.51 3.95 25 25 25 
4.38 0.8 0.68 71 71 71 
2.24 -0.46 -0.32 35 35 35 
0.44 -1.14 -0.27 21 21 21 
4.22 0.92 -0.36 32 32 32 
2.98 3.35 1.46 173 173 173 
2.97 3.36 5.42 53 53 53 
4.45 0.86 0.23 48 48 48 
3.25 -0.42 2.08 67 67 67 
0.92 1.48 -0.29 33 33 33 
1.6 0.93 2.5 71 71 71 
1.64 0.43 5.54 11 11 11 
2.26 0.74 -0.31 44 44 44 
2.38 -1.17 1.04 21 21 21 
3.32 0.99 -0.32 48 48 48 
2.94 -0.68 1.96 38 38 38 
3.32 2.92 1.53 205 205 205 
4.14 1.54 -0.34 70 70 70 
0.95 -1.8 3.39 13 13 13 
3.04 3.29 1.93 200 200 200 
0.83 2.08 5.47 2 2 2 
2.38 0.08 5.45 62 62 62 
0.37 1.69 5.29 20 20 20 
4.05 2.13 1.04 146 146 146 
3.58 2.6 0.94 145 145 145 
4.64 1.13 0.18 60 60 60 
1.16 0.53 4.37 15 15 15 
3.63 2.59 3.33 23 23 23 
3.77 2.5 3.29 41 41 41 
3.24 2.97 2.84 71 71 71 
4.43 1.75 1.71 187 187 187 
4.3 0.71 0.45 54 54 54 
1.2 -1.8 -0.29 18 18 18 
2.46 2.03 -0.33 42 42 42 
1.38 1.64 -0.29 22 22 22 
2.65 -0.74 1.19 77 77 77 
1.57 1.64 -0.3 32 32 32 
4.16 2.01 0.89 136 136 136 
2.96 3.31 0.93 134 134 134 
0.92 -1.81 1.14 43 43 43 
4.78 1.17 0.98 130 130 130 
0.31 -1.44 1.75 61 61 61 
1.16 -1.97 0.61 28 28 28 
2.4 0.98 -0.32 43 43 43 
3.3 2.94 5.01 12 12 12 
1.72 -1.62 1.34 19 19 19 
1.87 -1.69 0.18 6 6 6 
2.77 3.4 4.7 14 14 14 
1.45 0.07 3.69 143 143 143 
3.58 2.69 3.27 35 35 35 
1.92 2.88 -0.31 48 48 48 
3.11 2.7 4.41 24 24 24 
1.46 0.8 1.68 29 29 29 
3 3.34 1.92 233 233 233 
1.65 -1.53 -0.31 17 17 17 
2.96 3.4 4.8 7 7 7 
1.01 2.44 5.37 3 3 3 
3.73 0.11 0.83 67 67 67 
2.43 -1.06 2.03 115 115 115 
1.66 2.25 3.85 23 23 23 
2.76 1.02 -0.3 63 63 63 
3.12 3.16 0.69 93 93 93 
2.92 -0.42 -0.18 26 26 26 
0.94 1.83 -0.31 29 29 29 
2.55 -0.96 0.98 25 25 25 
2.71 -0.7 1.05 82 82 82 
2.97 3.26 0.46 78 78 78 
2.92 3.47 3.19 137 137 137 
2.67 3.44 5.25 11 11 11 
1.52 2.32 5.62 7 7 7 
2.38 2.11 -0.33 43 43 43 
1.75 -1.75 2.88 29 29 29 
0.84 -1.91 1.44 43 43 43 
1.42 -1.77 -0.28 10 10 10 
3.73 2.46 1.03 156 156 156 
3.57 0.04 0.81 73 73 73 
2.44 -0.44 -0.33 36 36 36 
3.01 -0.5 2.61 98 98 98 
1.26 -2.1 3.88 11 11 11 
0.79 -2.02 4.52 7 7 7 
4.47 0.81 1.21 90 90 90 
1.16 -1.96 -0.23 4 4 4 
4.32 1.81 0.16 41 41 41 
4.78 1.16 1.56 107 107 107 
1.64 -1.63 -0.32 15 15 15 
3.18 -0.47 2.29 93 93 93 
0.89 -1.19 -0.26 21 21 21 
2.49 0.53 -0.33 47 47 47 
1.19 -2.04 5.38 14 14 14 
2.96 -0.55 2.18 47 47 47 
3.08 3.18 0.5 86 86 86 
3.1 3.22 2.19 255 255 255 
3.07 3.16 0.88 56 56 56 
1.58 0.74 1.48 22 22 22 
2.59 -0.89 1.74 6 6 6 
4.46 1.68 -0.18 22 22 22 
4.64 0.98 1.76 159 159 159 
2.95 -0.7 1.69 79 79 79 
2.74 3.46 2.87 107 107 107 
1.55 -0.69 -0.28 35 35 35 
0.46 -1.47 0.19 14 14 14 
4.31 0.76 0.27 45 45 45 
2.63 3.3 0.17 34 34 34 
4.29 1.81 -0.35 37 37 37 
1.44 0.38 2.79 115 115 115 
3.13 -0.46 3.72 113 113 113 
4.64 1.38 0.93 125 125 125 
2.91 -0.56 0.83 89 89 89 
0.77 -1.86 0.84 37 37 37 
3.42 1.9 -0.36 31 31 31 
3.26 -0.35 1.58 51 51 51 
1.12 -1.01 -0.3 22 22 22 
2.81 2.88 -0.36 27 27 27 
3.07 -0.52 1.22 79 79 79 
3.72 0.17 1.01 59 59 59 
3.6 2.69 2.85 41 41 41 
3.74 2.46 2.15 202 202 202 
4.78 1.16 1.22 124 124 124 
3.5 0.02 -0.33 85 85 85 
4.78 1.16 1.2 92 92 92 
2.37 2.7 -0.33 24 24 24 
0.89 -1.86 3 8 8 8 
1.28 -1.9 -0.25 16 16 16 
1 -1.91 2.04 40 40 40 
2.43 0.34 -0.33 53 53 53 
3.8 0.23 0.03 100 100 100 
4.62 1.31 1.53 153 153 153 
4.23 0.6 1.4 75 75 75 
3.09 1.72 -0.36 41 41 41 
2.93 -0.61 3.62 182 182 182 
2.47 -0.92 0.81 28 28 28 
4.64 0.99 1.11 126 126 126 
3.4 1.03 -0.37 41 41 41 
4.15 2.01 0.14 32 32 32 
3.75 0.14 0.97 59 59 59 
0.72 -1.82 1.41 61 61 61 
2.6 -0.78 0 9 9 9 
3.5 2.42 0.14 70 70 70 
2.72 3.15 -0.32 24 24 24 
1.31 -1.98 2.13 34 34 34 
3.23 -0.49 3.51 34 34 34 
0.82 -1.55 -0.3 19 19 19 
2.2 -1.17 2.37 17 17 17 
3.99 0.41 0.76 61 61 61 
2.83 -0.67 0.04 43 43 43 
3.37 -0.16 -0.19 80 80 80 
2.86 -0.7 1.04 76 76 76 
2.89 -0.52 0.05 30 30 30 
3.18 0.38 -0.34 53 53 53 
3.23 2.75 0.2 56 56 56 
2.98 3.45 5.33 255 255 255 
3.83 2.44 3.1 58 58 58 
4.78 1.15 1.74 168 168 168 
3.87 2.33 1.23 167 167 167 
1.49 -1.01 -0.32 23 23 23 
2.7 3.31 2.27 159 159 159 
1.25 0.62 2.97 11 11 11 
2.44 0.68 -0.29 44 44 44 
2.99 3.31 0.34 70 70 70 
4.59 1.26 1.24 143 143 143 
2.18 -0.4 -0.29 39 39 39 
2.52 2.26 -0.34 37 37 37 
4.01 0.42 0.37 103 103 103 
3.29 3.08 3.42 31 31 31 
1.49 1.41 -0.27 24 24 24 
3.8 0.23 1.05 64 64 64 
3.83 2.39 2.68 60 60 60 
3.1 -0.39 0.97 83 83 83 
3.26 2.95 -0.14 60 60 60 
3.02 3.31 2.62 83 83 83 
0.47 -1.55 1.02 37 37 37 
2.85 -0.6 0.92 88 88 88 
2.8 1.69 -0.33 39 39 39 
0.84 -1.89 0.68 40 40 40 
1.88 0.85 5.48 78 78 78 
3.8 0.18 0.79 63 63 63 
3.8 2.35 1.25 161 161 161 
2.43 3.47 0.69 59 59 59 
1.64 0.57 -0.3 32 32 32 
2.22 -1.4 4.48 11 11 11 
4.62 1.35 -0.02 56 56 56 
2.72 -0.86 4.05 28 28 28 
2.94 -0.62 1.31 76 76 76 
3.75 2.43 0.55 35 35 35 
3.32 2.87 0.97 158 158 158 
1.95 -1.65 3.84 10 10 10 
3.81 1.87 -0.37 20 20 20 
3.62 2.29 0.68 41 41 41 
2.57 -0.62 -0.3 37 37 37 
3.38 -0.32 3.13 38 38 38 
1.4 0.6 2.5 28 28 28 
0.79 -1.95 -0.23 13 13 13 
2.07 0.34 -0.31 46 46 46 
3.84 2.35 0.22 31 31 31 
2.75 -0.65 -0.02 47 47 47 
1.45 0.39 3.58 158 158 158 
1.42 2.25 4.26 9 9 9 
0.57 -1.74 -0.08 31 31 31 
4.32 1.82 -0.37 40 40 40 
4.49 1.3 0.09 64 64 64 
4.56 1.61 1.64 198 198 198 
0.65 0.32 2.77 12 12 12 
4.33 1.85 1.24 163 163 163 
1.8 2.31 2.95 19 19 19 
3.47 2.72 -0.18 63 63 63 
4.04 1.33 -0.4 31 31 31 
3.35 -0.4 3.34 18 18 18 
3.86 2.33 0.9 128 128 128 
1.89 -1.44 2.7 26 26 26 
2.93 3.39 3.6 49 49 49 
4.06 1.25 -0.38 36 36 36 
3.09 -0.48 1.23 77 77 77 
3.59 2.64 3.37 30 30 30 
3.09 3.11 1.82 211 211 211 
4.12 0.47 1.47 67 67 67 
3.86 2.05 0.15 34 34 34 
3.99 2.15 0.49 36 36 36 
1.09 1.11 5.77 4 4 4 
3.1 -0.48 0.6 63 63 63 
2.34 2.73 -0.36 27 27 27 
3.26 1.18 -0.38 46 46 46 
2.61 -0.79 0.38 10 10 10 
2.97 -0.26 -0.35 62 62 62 
1.22 0.75 3.18 10 10 10 
2.88 -0.67 4 255 255 255 
2.28 1.55 -0.31 51 51 51 
3.07 -0.42 1.63 70 70 70 
3.06 -0.43 0.28 35 35 35 
2.33 2.2 5.64 5 5 5 
2.66 3.44 0.05 50 50 50 
2.16 -1.3 0 18 18 18 
3.6 2.62 0.99 145 145 145 
2.61 3.3 0.11 34 34 34 
4.2 2 1.82 144 144 144 
3.08 -0.65 3.06 19 19 19 
1.03 -1.82 -0.03 30 30 30 
2.35 -1.21 1.08 22 22 22 
1.2 -1.99 0.35 3 3 3 
1.35 -1.83 1.27 38 38 38 
3.65 2.62 3.03 40 40 40 
2.58 3.47 3.94 19 19 19 
0.91 2.38 5.17 13 13 13 
3.76 2.43 2.04 210 210 210 
4.17 0.57 0.76 56 56 56 
3.39 2.81 0.73 53 53 53 
3.2 -0.38 1.12 74 74 74 
3.27 2.96 1.08 158 158 158 
1.98 2.28 -0.3 37 37 37 
2.04 2.94 -0.33 30 30 30 
2.24 -1.33 3.91 13 13 13 
1.41 1.23 -0.28 31 31 31 
4.29 0.61 1.63 128 128 128 
3.24 -0.28 0.42 45 45 45 
1.56 1.89 -0.31 27 27 27 
0.84 -1.92 2.83 6 6 6 
2.63 -0.93 1.48 21 21 21 
0.92 -1.88 0.79 36 36 36 
0.87 -2.04 1.71 33 33 33 
2.7 -0.93 3.6 28 28 28 
2.81 -0.72 0.47 62 62 62 
2.79 -0.04 -0.32 54 54 54 
4.15 1.99 1.61 184 184 184 
1.05 -0.81 4.29 11 11 11 
4.6 1.05 -0.31 53 53 53 
1.72 -1.82 2.77 83 83 83 
1.32 1.28 5.47 7 7 7 
3.9 0.34 0.51 81 81 81 
4.78 1.14 1.28 109 109 109 
3.8 0.25 0.33 102 102 102 
4.35 0.7 0.75 58 58 58 
4.78 1.14 1.25 126 126 126 
2.17 1.87 2.86 9 9 9 
1.19 -0.75 -0.27 24 24 24 
1.97 2.07 2.77 21 21 21 
4.04 0.41 1.39 71 71 71 
2.87 2.68 -0.36 25 25 25 
0.41 -1.6 1 4 4 4 
2.6 0.37 -0.31 53 53 53 
0.43 1.93 5.44 7 7 7 
2.14 1.46 -0.32 55 55 55 
4.59 1.53 0.19 69 69 69 
1.51 -0.55 -0.27 33 33 33 
1.69 1.94 -0.3 27 27 27 
1.76 -0.59 -0.29 42 42 42 
1.79 -1.55 3.02 43 43 43 
0.39 -1.53 1.28 25 25 25 
3.26 2.02 -0.36 27 27 27 
2.03 2.49 -0.33 30 30 30 
3.16 3.13 0.82 106 106 106 
1.52 -1.79 2.8 71 71 71 
2.22 -1.12 2.04 39 39 39 
3.1 -0.56 2.66 87 87 87 
2.72 2.32 -0.32 28 28 28 
2.16 -1.45 4.38 8 8 8 
3.42 2.76 0.64 52 52 52 
2.97 -0.73 2.85 19 19 19 
2.99 -0.54 2.88 10 10 10 
4.25 1.78 0.56 69 69 69 
3.39 0.99 -0.37 78 78 78 
3.03 -0.51 2.81 14 14 14 
4.35 1.01 -0.35 35 35 35 
4.33 0.78 -0.16 53 53 53 
3.89 2.37 3.1 78 78 78 
2.82 -0.67 2.04 37 37 37 
3.54 2.72 3.04 41 41 41 
4.3 1.8 0.18 38 38 38 
2.12 -1.65 3.02 22 22 22 
3.26 3.05 2.87 56 56 56 
2.83 3.45 4.88 13 13 13 
1.39 0.51 3.55 34 34 34 
1.98 1 -0.3 39 39 39 
3.44 2.78 -0.19 57 57 57 
1.73 -1.58 2.7 42 42 42 
3.18 3.13 2.71 92 92 92 
4.33 0.69 0.51 52 52 52 
4.55 1.34 0.14 65 65 65 
0.91 1.5 -0.28 29 29 29 
2.62 3.5 0.71 90 90 90 
4.39 0.82 0.26 49 49 49 
2.93 3.32 0.18 66 66 66 
2.03 2.06 2.78 18 18 18 
3.22 -0.4 3.7 73 73 73 
1.26 2.06 -0.29 27 27 27 
3.87 0.62 -0.33 37 37 37 
1.92 -1.6 2.81 25 25 25 
2.19 3.09 5.48 8 8 8 
4.55 1.26 0.68 96 96 96 
4.64 1.18 1.38 132 132 132 
2.91 0.53 -0.34 67 67 67 
3.27 2.98 4.71 5 5 5 
2.61 -0.82 -0.29 19 19 19 
2.81 -0.62 1.39 83 83 83 
1.85 -0.54 4.54 18 18 18 
1.48 -1.87 1.02 50 50 50 
0.93 -1.88 0.91 43 43 43 
0.67 1.39 -0.28 23 23 23 
2.71 -0.87 0.63 6 6 6 
4.62 1.54 0.37 84 84 84 
1.96 -1.36 3.12 14 14 14 
3.47 -0.02 0.46 87 87 87 
2.44 -1.04 1.8 74 74 74 
3 -0.58 0.75 71 71 71 
3.3 -0.21 0.88 76 76 76 
2.2 -1.22 0.6 17 17 17 
4.46 0.87 0.57 81 81 81 
3.22 -0.47 3.03 14 14 14 
1.4 -1.95 1.48 35 35 35 
2.15 1.92 2.86 9 9 9 
2.6 3.53 4.79 11 11 11 
1.58 0.61 -0.29 31 31 31 
1.63 2.49 2.52 36 36 36 
0.39 -1.6 1.25 46 46 46 
3.07 3.56 5.04 7 7 7 
1.39 2.44 4.76 4 4 4 
3.11 3.18 0.69 88 88 88 
2.22 1.23 -0.31 49 49 49 
2.09 -1.64 3.02 24 24 24 
3.74 2.53 3.06 47 47 47 
3.83 0.28 0.65 70 70 70 
1.65 -1.82 -0.22 4 4 4 
3.15 2.82 4.28 12 12 12 
4.31 0.97 -0.39 38 38 38 
4.39 1.25 -0.29 38 38 38 
1.52 -1.76 2.17 140 140 140 
3.26 3.03 1.69 189 189 189 
2.88 -0.87 3.81 46 46 46 
2.37 -1.11 0.57 22 22 22 
1.79 -1.71 2.76 30 30 30 
2.51 0.75 -0.33 54 54 54 
2.68 2.91 -0.36 26 26 26 
3.02 3.47 5.4 53 53 53 
2.6 -0.82 -0.27 20 20 20 
1.44 -1.91 0.7 31 31 31 
2.61 3.45 1.07 122 122 122 
1.75 1.03 -0.3 32 32 32 
2.87 2.37 4.26 26 26 26 
3.26 2.8 0.54 65 65 65 
2.09 -1.38 2.07 204 204 204 
1.93 -0.38 2.92 27 27 27 
3.5 2.82 3.45 27 27 27 
2.33 -1.12 0.51 24 24 24 
3.24 3.11 2.3 29 29 29 
3.13 3.31 4.16 15 15 15 
2.78 -0.78 0.83 67 67 67 
3.95 0.52 -0.38 46 46 46 
2.63 3.44 0.45 59 59 59 
3.44 -0.1 0.99 91 91 91 
4.44 1.19 -0.34 96 96 96 
3.13 -0.36 0.92 82 82 82 
3.23 3.09 1.53 197 197 197 
3.28 2.78 4.24 16 16 16 
4.27 0.74 -0.23 52 52 52 
2.92 -0.58 1.18 83 83 83 
1.87 -1.42 3.03 19 19 19 
1.08 -1.97 3.38 41 41 41 
3.41 -0.11 0.95 79 79 79 
3.59 0.05 0.29 108 108 108 
4.68 1.12 0.59 88 88 88 
4.49 1.67 0.25 62 62 62 
3.03 -0.83 3.96 92 92 92 
2.71 3.5 2.59 84 84 84 
3.94 2.35 3.29 70 70 70 
1.46 0.25 1.56 21 21 21 
1.19 -1.96 1.47 31 31 31 
0.85 -2.01 3.96 59 59 59 
3.42 -0.16 1.08 77 77 77 
0.32 0.89 2.98 7 7 7 
1.51 0.21 2.55 50 50 50 
3.6 2.37 0.85 80 80 80 
0.79 -1.96 2.82 5 5 5 
3.11 -0.38 0.93 79 79 79 
2.97 -0.86 3.94 50 50 50 
3.51 2.55 3.36 21 21 21 
3.76 2.49 2.76 53 53 53 
2.64 3.54 3.45 50 50 50 
4.62 1.46 0.4 91 91 91 
3.59 0.01 1.08 66 66 66 
2.64 2.66 -0.32 27 27 27 
3.64 2.6 0.78 94 94 94 
2.28 -1.27 1.58 27 27 27 
3.81 0.16 1.68 148 148 148 
2.64 0.23 -0.31 52 52 52 
2.58 2.96 -0.31 27 27 27 
4.28 0.66 1.17 77 77 77 
3.03 -0.63 2.13 44 44 44 
1.35 1.76 -0.27 35 35 35 
2.01 1.39 4.38 5 5 5 
2.74 -0.98 3.76 26 26 26 
2.31 2.2 5.59 6 6 6 
3.9 0.31 0.78 26 26 26 
2.24 -1.34 1.34 24 24 24 
4.2 0.63 0.01 59 59 59 
2.02 -1.35 0.56 17 17 17 
3.45 1.35 -0.36 67 67 67 
1.16 2.19 4.76 6 6 6 
2.99 3.46 4.54 10 10 10 
3.28 2.94 1.39 195 195 195 
3.53 1.32 -0.36 98 98 98 
0.99 -1.76 0.9 39 39 39 
1.87 -1.05 2.75 6 6 6 
3.37 2.82 1.13 170 170 170 
2.8 3.19 -0.33 26 26 26 
2.86 -0.88 3.48 39 39 39 
3.52 1.15 -0.38 36 36 36 
2.76 0.68 -0.3 69 69 69 
3.41 2.78 0.9 151 151 151 
4.49 0.94 0.15 52 52 52 
3.18 3.13 1.32 164 164 164 
2.3 0.17 -0.32 42 42 42 
1.01 -1.85 0.27 34 34 34 
2.38 2.21 5.63 6 6 6 
3.13 3.12 -0.02 64 64 64 
3.82 2.46 3.59 27 27 27 
3.31 -0.34 1.9 64 64 64 
1.21 -1.99 0.97 5 5 5 
3.3 -0.43 3.01 13 13 13 
3.17 2.74 0.01 36 36 36 
0.95 -1.84 3.4 13 13 13 
0.81 -1.95 0.77 54 54 54 
3.27 2.92 1.28 177 177 177 
2 0.8 -0.28 43 43 43 
3.96 0.52 -0.36 43 43 43 
4.27 1.81 0.31 49 49 49 
3.3 2.91 4.14 30 30 30 
3.62 2.57 1.52 199 199 199 
4.64 1.05 0.8 107 107 107 
2.72 3.31 2.28 35 35 35 
1.97 -1.39 0.63 16 16 16 
4.01 1.78 0.48 19 19 19 
4.13 2.03 1.01 156 156 156 
4.22 0.57 1.78 174 174 174 
1.9 -0.99 3.24 7 7 7 
1.64 0.9 2.17 23 23 23 
3.22 3.1 3.1 59 59 59 
3.96 2.21 0.63 48 48 48 
1.77 0.48 1.34 23 23 23 
2.66 3.45 1.54 82 82 82 
4.38 0.75 1.48 88 88 88 
1.56 0.65 1.43 20 20 20 
2.64 3.42 0.08 52 52 52 
3.15 3.11 0.67 88 88 88 
3.73 2.44 2.15 179 179 179 
3.64 2.57 1.31 188 188 188 
4.35 0.81 0 52 52 52 
2.14 0.59 -0.28 43 43 43 
2.97 -0.69 2.63 12 12 12 
0.81 -2.01 0.54 39 39 39 
3.12 3.16 3.31 101 101 101 
3.1 3.24 3.55 70 70 70 
4.17 1.76 0.78 86 86 86 
3.79 0.25 0.51 79 79 79 
4.17 0.95 -0.35 35 35 35 
2.82 -0.51 -0.23 29 29 29 
3.13 -0.43 3.15 9 9 9 
3.46 -0.3 3.16 21 21 21 
0.73 1.64 -0.27 29 29 29 
0.96 -2 2.8 11 11 11 
2.64 -0.91 3.55 26 26 26 
4.1 0.48 1.01 58 58 58 
2.88 3.44 1.82 216 216 216 
3.16 3.11 0.7 87 87 87 
2.71 2.22 4.28 20 20 20 
1.6 -0.6 5.67 13 13 13 
3.35 2.98 3.57 34 34 34 
-0.17 -1.01 2.91 16 16 16 
4.66 0.94 1.62 136 136 136 
2.08 -1.35 0.51 20 20 20 
1.45 2.37 3.79 5 5 5 
1.61 -0.79 4.52 11 11 11 
3.02 -0.19 -0.35 65 65 65 
4.12 2.01 1.06 156 156 156 
3.42 2.84 3.44 32 32 32 
0.36 -1.52 4.26 16 16 16 
4.46 0.91 0.08 46 46 46 
3.11 -0.63 3.48 33 33 33 
3.06 2.48 4.36 19 19 19 
1.56 -0.59 -0.28 49 49 49 
1.32 2 -0.31 51 51 51 
1.65 -1.86 -0.32 3 3 3 
2.85 3.39 0.45 81 81 81 
1.65 1.68 -0.32 25 25 25 
1.48 0.3 3.19 175 175 175 
2.15 2.58 -0.34 32 32 32 
2.12 -1.24 2 18 18 18 
1.46 0.68 1.51 25 25 25 
4.39 1.72 1.53 180 180 180 
1.5 2.35 4.5 5 5 5 
2.76 1.01 -0.3 68 68 68 
2.3 -1.19 0.96 21 21 21 
3.52 2.42 3.31 28 28 28 
2.75 -0.8 0.73 65 65 65 
3.55 2.66 1.21 168 168 168 
2.82 -0.73 1.36 93 93 93 
-0.11 -0.99 3.13 28 28 28 
1.43 -1.78 0.34 42 42 42 
2.06 0.62 -0.31 45 45 45 
1.23 2.06 3.55 12 12 12 
3.65 2.57 1.08 170 170 170 
1.46 -1.91 1.18 35 35 35 
0.22 0.97 2.7 16 16 16 
3 -0.69 3.39 70 70 70 
1.44 -0.45 2.94 13 13 13 
2.57 3.44 4.85 10 10 10 
0.77 -1.94 0.83 39 39 39 
1.35 1.37 -0.27 31 31 31 
4.7 1.19 1.34 134 134 134 
2.71 3.3 4.2 131 131 131 
4.77 1.23 1.19 124 124 124 
1.87 -0.17 -0.27 42 42 42 
3.08 -0.7 3.54 63 63 63 
3.01 -0.54 2.36 12 12 12 
3.38 -0.27 1.76 137 137 137 
2.61 3.25 -0.26 41 41 41 
0.79 -2.02 1.39 54 54 54 
1.66 -1.65 1.44 18 18 18 
3.19 0.32 -0.37 107 107 107 
1.33 -1.25 -0.32 18 18 18 
2.95 -0.79 3.87 94 94 94 
1.41 0.7 2.53 183 183 183 
1.04 -1.92 2.73 17 17 17 
3.15 3.22 3.55 68 68 68 
0.97 0.64 -0.27 26 26 26 
4.77 1.22 1.56 81 81 81 
1.24 -2.01 1.65 37 37 37 
1.26 2.26 4.78 11 11 11 
2.42 -0.96 0.63 25 25 25 
2.89 3.46 2.78 34 34 34 
4.71 1.07 0.96 132 132 132 
2.66 -0.92 3.92 17 17 17 
1.17 2.11 0.83 77 77 77 
2.68 3.48 5.41 13 13 13 
1.95 -1.42 3.3 18 18 18 
1.73 -1.47 -0.26 5 5 5 
3.24 2.99 2.87 59 59 59 
4.62 1.33 1.28 138 138 138 
3.96 1.82 0.05 54 54 54 
2.62 3.55 2.25 16 16 16 
1.4 2.26 4.88 19 19 19 
4.59 1.18 -0.3 26 26 26 
1.52 -0.44 2.73 19 19 19 
1.89 1.25 -0.32 36 36 36 
2.89 1.04 -0.34 55 55 55 
2.09 -1.33 0.55 18 18 18 
3.01 -0.55 2.35 9 9 9 
0.21 1.07 2.21 11 11 11 
3.03 3.35 2.25 41 41 41 
3.09 1.72 -0.35 37 37 37 
1.28 -1.99 1.94 39 39 39 
3.28 2.88 0.43 92 92 92 
1.32 0.64 1.74 50 50 50 
4.52 1.25 0 46 46 46 
2.25 2.3 -0.32 43 43 43 
4.57 1.57 1.01 141 141 141 
2.98 2.97 -0.35 24 24 24 
1.3 1.51 -0.3 27 27 27 
2.66 3.28 4.24 102 102 102 
2.39 -0.93 0.43 23 23 23 
4.61 0.99 0.11 57 57 57 
1.38 2.23 4.84 11 11 11 
2.69 3.49 1.96 196 196 196 
3.22 -0.43 2.23 84 84 84 
1.39 0.53 1.51 24 24 24 
3.13 2.61 -0.3 18 18 18 
3.09 0.43 -0.33 63 63 63 
2.32 -1.2 0.61 20 20 20 
