ply
format ascii 1.0
comment Author: CloudCompare (TELECOM PARISTECH/EDF R&D)
obj_info Generated by CloudCompare!
element vertex 1874
property float x
property float y
property float z
property uchar red
property uchar green
property uchar blue
end_header
2.53 -0.94 0.65 20 20 20 
3.07 0.26 -0.37 65 65 65 
0.41 -1.48 1.61 5 5 5 
1.43 -0.62 -0.28 36 36 36 
1.2 -2.13 5.29 9 9 9 
2.17 2.36 -0.3 38 38 38 
2.08 1.95 2.76 16 16 16 
1.82 -1.46 -0.27 8 8 8 
2.24 0.13 -0.33 58 58 58 
1.41 0.29 1.6 23 23 23 
3.15 3.1 2.76 113 113 113 
0.95 -1.83 1.02 55 55 55 
2.65 -0.78 1.13 85 85 85 
3.96 1.89 0.84 68 68 68 
2.36 2.4 5.52 8 8 8 
0.88 -2.09 2.64 8 8 8 
2.64 -0.93 1.41 6 6 6 
1.18 -2.11 1.18 24 24 24 
4.4 0.81 0.4 54 54 54 
2.72 3.29 2.24 38 38 38 
3.04 -0.47 2.56 95 95 95 
0.96 -2.18 5.69 12 12 12 
3.21 0.49 -0.37 51 51 51 
0.86 -1.99 -0.11 51 51 51 
3.08 -0.49 0.54 67 67 67 
3.77 2.42 2.79 56 56 56 
2.95 -0.65 1.22 77 77 77 
2.86 -0.51 0.43 27 27 27 
3.08 3.25 2.84 91 91 91 
3.56 2.64 2.22 30 30 30 
1.56 0.56 2.89 78 78 78 
4.13 0.49 1.04 58 58 58 
4.74 1.1 1.53 76 76 76 
3.29 3.05 3.66 35 35 35 
3.85 2.42 3.2 53 53 53 
1.46 2.2 3.89 14 14 14 
2.91 -0.56 0.28 33 33 33 
2.66 -0.77 1.54 85 85 85 
3.21 3.13 5.68 7 7 7 
2.84 -0.67 1.5 85 85 85 
0.54 -1.64 1.53 55 55 55 
4.57 1.54 -0.4 72 72 72 
1.44 -1.76 1 7 7 7 
3.9 0.48 -0.38 56 56 56 
0.64 -1.8 -0.24 39 39 39 
2.96 0.96 -0.34 62 62 62 
2.98 3.27 0.72 98 98 98 
2.59 3.45 5.08 11 11 11 
3.66 2.57 1.96 203 203 203 
2.87 -0.71 3.12 24 24 24 
2.63 -0.93 -0.17 7 7 7 
2.96 3.28 0.23 70 70 70 
3.22 -0.5 3.27 21 21 21 
1.04 -1.98 4.13 45 45 45 
3.29 0.5 -0.34 54 54 54 
3.57 2.63 0.19 38 38 38 
1.4 0.47 -0.27 27 27 27 
2.58 -0.9 0.04 12 12 12 
2.53 0.26 -0.31 49 49 49 
2.65 -0.85 0.02 9 9 9 
2.92 -0.66 3.46 42 42 42 
0.51 1.78 5.5 3 3 3 
2.86 -0.74 1.32 78 78 78 
1.9 2.61 -0.33 26 26 26 
3.94 0.26 1.66 59 59 59 
3.91 2.31 3.62 27 27 27 
0.95 -1.86 0.84 41 41 41 
3.35 1.05 -0.37 41 41 41 
1.6 -0.74 5.72 9 9 9 
3.17 3.1 3.71 50 50 50 
2.78 3.44 5.38 14 14 14 
3 -0.62 1.55 89 89 89 
0.84 -1.96 0.57 41 41 41 
1.43 2.05 -0.32 27 27 27 
4.74 1.1 1.11 129 129 129 
4.6 1.55 1.25 164 164 164 
2.56 3.54 0.38 38 38 38 
1.57 0.44 2.59 37 37 37 
3.09 3.17 1.46 181 181 181 
3.31 1.28 -0.34 35 35 35 
1.71 -1.62 2.69 55 55 55 
4.61 1.51 1.34 167 167 167 
0.92 -0.04 2.76 11 11 11 
2.68 -0.52 -0.13 29 29 29 
3.14 3.12 3.39 75 75 75 
3.54 0.9 -0.34 51 51 51 
1.81 -1.15 -0.21 11 11 11 
3.45 2.74 0.28 84 84 84 
3.8 1.99 0.08 67 67 67 
3.85 0.22 1.53 71 71 71 
1.7 3.01 5.18 75 75 75 
4.61 1.08 0.18 56 56 56 
3.04 3.22 2.52 59 59 59 
1.84 -0.25 3.18 16 16 16 
3.13 3.19 1.78 205 205 205 
2.68 3.45 1.6 73 73 73 
4.74 1.1 0.89 124 124 124 
2.97 -0.63 2.99 24 24 24 
0.11 0.99 2.63 36 36 36 
1.27 -1.84 1.17 43 43 43 
0.22 -1.45 3.82 22 22 22 
1.38 -1.93 1.32 38 38 38 
3.24 1.08 -0.35 39 39 39 
1.16 -2.09 1.46 68 68 68 
3.34 -0.15 -0.24 74 74 74 
2.21 2.31 -0.31 44 44 44 
3.49 1.73 -0.4 28 28 28 
1.77 0.05 2.18 105 105 105 
4.59 1.47 -0.22 44 44 44 
2.8 2.54 -0.35 27 27 27 
2.86 -0.62 0.55 66 66 66 
2.46 -1.07 2.63 15 15 15 
2.66 3.25 1.53 162 162 162 
3.43 -0.17 1.27 74 74 74 
1.42 0.1 3.69 82 82 82 
4.06 0.54 -0.12 62 62 62 
2.66 -0.76 0.56 69 69 69 
2.08 -1.26 2.19 18 18 18 
2.66 3.32 1.02 127 127 127 
3.62 2.56 1.32 185 185 185 
1.33 0.51 1.65 23 23 23 
2.68 3.56 4.25 14 14 14 
3.93 2.24 1.67 197 197 197 
3.23 2.87 4.23 18 18 18 
4.74 1.09 1.76 170 170 170 
4.06 2.12 1.4 178 178 178 
4.31 0.67 1.27 73 73 73 
2.98 3.34 1.81 231 231 231 
3.17 -0.41 3.15 16 16 16 
3.51 -0.08 0.64 63 63 63 
4.74 1.09 1.7 170 170 170 
3.61 2.65 3.13 44 44 44 
3.41 2.73 4.46 6 6 6 
4.01 2.14 1.47 184 184 184 
1.51 0.18 1.92 85 85 85 
0.46 -1.62 3.45 10 10 10 
4.47 1.67 1.23 146 146 146 
1.61 0.4 3.5 170 170 170 
1.58 -1.69 0.75 11 11 11 
2.82 3.42 -0.14 53 53 53 
4.49 1.56 -0.29 50 50 50 
1.29 -2.03 2.47 15 15 15 
3.16 3.21 3.07 117 117 117 
3.21 3.06 1.3 180 180 180 
1.82 -1.71 2.6 48 48 48 
2.92 3.33 0.63 103 103 103 
3.86 0.24 1.41 63 63 63 
4.51 0.94 0.4 79 79 79 
3.61 2.09 -0.32 21 21 21 
1.41 -1.79 1.1 41 41 41 
1.15 -2.08 0.87 30 30 30 
1.98 2.22 2.95 69 69 69 
1.86 1.53 -0.31 32 32 32 
3.86 2.34 1.34 174 174 174 
4.04 0.4 1.06 58 58 58 
3.99 0.36 1.26 67 67 67 
1.6 -1.17 -0.28 21 21 21 
1.48 0.18 2.18 34 34 34 
0.86 -1.92 1.07 47 47 47 
2.14 -0.24 4.38 9 9 9 
3.83 0.24 1.09 71 71 71 
3.24 3.12 2.95 64 64 64 
1.82 0.62 -0.29 43 43 43 
3.26 -0.4 2.28 85 85 85 
3.83 2.35 1.64 209 209 209 
2.62 -0.89 1.9 100 100 100 
2.64 -0.32 -0.32 43 43 43 
2.69 3.47 1.29 118 118 118 
0.27 -1.37 4.3 20 20 20 
2.81 -0.79 3.5 58 58 58 
2.38 -0.89 -0.25 42 42 42 
3.84 1.59 -0.38 35 35 35 
1.45 0.21 2.74 48 48 48 
2.07 -1.39 0.5 17 17 17 
1.39 0.68 2.21 25 25 25 
2.39 -1.17 0.62 20 20 20 
1.74 3.05 5.18 101 101 101 
1.84 -1.5 -0.26 1 1 1 
2.47 3.44 0.42 43 43 43 
1.34 2.31 4.62 9 9 9 
1.44 0.25 2.1 108 108 108 
2.89 3.14 -0.32 29 29 29 
3.37 2.87 2.23 26 26 26 
4.6 1.29 1.36 141 141 141 
2.14 -0.2 5.45 8 8 8 
2.46 -0.63 -0.36 37 37 37 
3.33 2.87 3.7 26 26 26 
2.86 -0.64 2.4 8 8 8 
2.16 2.94 5.37 4 4 4 
1.3 0.84 4.34 9 9 9 
3.07 2.57 4.23 18 18 18 
3.42 2.32 3.23 31 31 31 
4.65 1.17 1.63 156 156 156 
0.35 -1.47 1.47 56 56 56 
0.04 -1.11 3.17 28 28 28 
2.76 3.44 3.29 94 94 94 
3.61 -0.05 1.94 170 170 170 
1.95 -0.63 3.68 32 32 32 
3.74 0.22 -0.2 92 92 92 
3.45 2.82 0.94 146 146 146 
1.18 1.53 -0.3 22 22 22 
2.02 2.14 2.7 15 15 15 
3.24 -0.41 2.39 91 91 91 
3.7 2.49 0.68 40 40 40 
4.53 0.9 1.31 126 126 126 
2.48 2.11 -0.35 36 36 36 
1.58 -1.9 1.57 6 6 6 
1.72 1.88 -0.33 27 27 27 
4.74 1.09 0.92 160 160 160 
2.59 3.32 -0.05 52 52 52 
0.84 -1.98 0.76 43 43 43 
1.42 1.84 -0.32 32 32 32 
3 3.31 1.51 181 181 181 
1.58 -0.34 -0.29 33 33 33 
2.35 3.19 5.66 12 12 12 
2.45 -1.12 1.56 25 25 25 
4.56 1.57 0.13 63 63 63 
3.39 0.88 -0.36 43 43 43 
0.72 0.12 2.78 14 14 14 
3.78 0.14 0.87 64 64 64 
3.02 -0.34 -0.15 34 34 34 
2.18 -0.26 5.45 8 8 8 
2.45 -0.37 -0.35 41 41 41 
1.47 -1.8 0.56 6 6 6 
1.38 -1.85 0.37 31 31 31 
3.22 3.14 2.65 82 82 82 
0.97 -1.86 0.93 38 38 38 
2.76 3.47 5.51 15 15 15 
4.44 1.69 1.27 180 180 180 
3.96 1.17 -0.34 31 31 31 
2.06 -1.37 -0.04 14 14 14 
4.51 0.96 -0.27 53 53 53 
3.9 2.34 3.11 80 80 80 
1.21 -1.98 0.72 4 4 4 
2.21 -0.08 2.63 27 27 27 
3.89 0.28 1.49 69 69 69 
4.58 1.53 1.29 169 169 169 
0.87 -1.9 2.24 9 9 9 
1.55 0.72 2.54 36 36 36 
4.21 2 1.83 144 144 144 
4.74 1.08 1.64 137 137 137 
3.67 0.03 1 62 62 62 
4.49 1.61 -0.16 39 39 39 
2.22 -0.74 -0.33 33 33 33 
1.19 -2.05 0.59 28 28 28 
3.93 2.28 1.69 193 193 193 
0.87 -1.88 3 9 9 9 
1.22 1.3 5.75 7 7 7 
2.22 2.25 -0.3 49 49 49 
2.15 -1.22 2.55 18 18 18 
2.9 -0.73 2.82 33 33 33 
3.95 2.33 3.57 36 36 36 
3.1 -0.54 3.97 164 164 164 
2.3 -1.28 1.27 20 20 20 
2.03 2.86 -0.35 24 24 24 
3.11 3.09 -0.26 58 58 58 
1.81 0.07 -0.29 39 39 39 
1.21 -1.73 5.94 49 49 49 
1.24 -1.93 1.19 18 18 18 
0.95 -1.97 1.27 39 39 39 
2.99 2.6 4.24 17 17 17 
0.62 -0.9 -0.28 18 18 18 
3.82 0.19 1.85 57 57 57 
4.74 1.08 1.37 131 131 131 
3.15 -0.61 3.59 56 56 56 
3.33 -0.25 1.42 57 57 57 
4.58 1.53 0.99 147 147 147 
2.57 0.62 -0.3 47 47 47 
2.26 1.21 -0.3 43 43 43 
2.72 -0.91 1.47 5 5 5 
1.77 1.7 -0.28 35 35 35 
4.19 0.55 1.58 88 88 88 
4.62 0.97 1.49 124 124 124 
2.61 -0.81 1.36 9 9 9 
3.15 1.09 -0.36 40 40 40 
2.42 1.85 -0.31 41 41 41 
3.35 2.43 -0.24 83 83 83 
1.35 -0.56 4.38 17 17 17 
2.3 2.47 -0.32 30 30 30 
3.1 2.97 0.79 59 59 59 
1.77 1.19 -0.31 33 33 33 
2.83 0.94 -0.34 66 66 66 
4.74 1.08 0.89 114 114 114 
2.99 3.24 -0.28 60 60 60 
1.08 -1.53 -0.26 12 12 12 
2.07 2.84 5.51 14 14 14 
2.74 2.97 -0.36 25 25 25 
2.73 3.55 4.43 13 13 13 
3.16 3.13 0.76 93 93 93 
2.05 0.35 -0.29 52 52 52 
1.97 -1.59 2.96 29 29 29 
1.81 1.93 5.76 10 10 10 
2.69 3.53 5.09 16 16 16 
0.31 -1.06 -0.27 35 35 35 
4.5 1.18 1.67 21 21 21 
3.23 -0.04 -0.36 55 55 55 
4.5 0.87 0.31 59 59 59 
3.37 2.8 4.13 29 29 29 
3.13 0.63 -0.33 55 55 55 
1.61 0.06 3.66 40 40 40 
3.94 2.25 3.39 56 56 56 
1.98 -1.54 -0.3 5 5 5 
3.61 0.11 -0.3 76 76 76 
2.48 1.85 4.42 8 8 8 
3.43 -0.27 3.35 28 28 28 
0.95 2.36 5.4 1 1 1 
1.66 -0.34 -0.31 31 31 31 
4.54 1.22 1.32 131 131 131 
3.6 2.61 2.22 25 25 25 
0.2 -1.2 2.32 20 20 20 
3.04 3.1 0.01 58 58 58 
3.36 2.96 3.09 56 56 56 
3.12 -0.54 2.29 14 14 14 
2.83 3.43 1.45 126 126 126 
3.26 3.08 4.1 14 14 14 
1.55 0.13 2.21 35 35 35 
2.81 3.43 4.75 12 12 12 
4.59 1.37 0.19 69 69 69 
1.3 -0.99 4.54 9 9 9 
4.58 1.52 -0.29 41 41 41 
3.26 -0.32 0.7 71 71 71 
2.64 1.49 -0.32 60 60 60 
2.99 -0.52 0.59 81 81 81 
4.74 1.07 1.48 73 73 73 
1.86 -1.66 2.75 36 36 36 
3.12 -0.43 0.82 73 73 73 
3.24 2.98 0.92 122 122 122 
3.5 2.73 1.41 200 200 200 
2.88 2 -0.32 30 30 30 
0.87 1.44 -0.28 33 33 33 
0.94 1.02 -0.28 16 16 16 
0.36 -1.48 1.42 56 56 56 
3.01 3.29 1.65 192 192 192 
2.86 3.41 1.26 141 141 141 
2.63 -0.94 1.35 30 30 30 
3.08 3.22 3.47 62 62 62 
2.77 2.88 -0.3 25 25 25 
3.1 3.16 0.33 71 71 71 
4.74 1.06 1.78 166 166 166 
1.87 0.62 -0.31 37 37 37 
0.22 -1.34 1.84 60 60 60 
1.05 -1.84 3.64 45 45 45 
1.64 -0.67 4.34 22 22 22 
1.48 0.94 2.58 19 19 19 
3.55 2.64 1.38 188 188 188 
4.23 1.92 0.27 75 75 75 
1.66 -1.84 2.97 61 61 61 
3.6 2.29 0.45 27 27 27 
1.09 -1.97 2.87 8 8 8 
3.29 -0.24 1.67 81 81 81 
1.63 0.87 2.87 33 33 33 
4.74 1.06 1.65 158 158 158 
1.44 0.4 3.66 32 32 32 
4.57 1.54 0.31 76 76 76 
3.03 -0.59 1.69 92 92 92 
1.54 0.19 3.66 40 40 40 
2.25 3.22 0.53 46 46 46 
3.25 0.83 -0.38 49 49 49 
1.59 -0.58 4.36 23 23 23 
2.91 -0.53 1.01 89 89 89 
3.26 -0.24 1.02 83 83 83 
2.83 -0.72 0.86 67 67 67 
3.18 3.27 3.18 119 119 119 
2.77 1.91 -0.32 29 29 29 
3.03 1.63 -0.34 23 23 23 
3.28 0.7 -0.37 49 49 49 
3.56 2.2 -0.31 67 67 67 
3.25 2.98 1.38 181 181 181 
1.85 0.91 -0.3 32 32 32 
4.58 0.94 1.82 150 150 150 
4.62 1.01 0.55 80 80 80 
1.07 1.88 5 6 6 6 
3.58 2.63 1.28 183 183 183 
3.86 0.3 0.28 114 114 114 
2.08 -0.46 -0.33 33 33 33 
1.42 -0.8 4.56 14 14 14 
0.95 -0.03 2.76 12 12 12 
2.94 3.4 1.65 208 208 208 
2.76 3.52 5.39 9 9 9 
2.6 -0.96 1.04 22 22 22 
2.92 -0.62 1.12 83 83 83 
1.62 -1.75 0.67 10 10 10 
1.67 1 2.2 28 28 28 
1.17 -2.03 0.05 28 28 28 
1.28 -1.87 0.66 36 36 36 
1.42 0.42 3.01 111 111 111 
1.9 -0.58 -0.28 34 34 34 
3.21 -0.27 1.13 77 77 77 
1.52 0.17 1.77 77 77 77 
2.62 3.48 0.26 49 49 49 
1.39 -1.78 1.42 40 40 40 
3.92 2.23 -0.21 22 22 22 
3.07 -0.39 0.21 30 30 30 
0.97 -1.99 3.61 17 17 17 
2.88 -0.67 1.3 80 80 80 
2.63 3.47 0.7 87 87 87 
3.35 1.85 -0.35 28 28 28 
1.85 -0.28 -0.29 34 34 34 
3.35 -0.22 1.24 81 81 81 
1.41 0.51 -0.29 24 24 24 
3.58 2.4 0.82 65 65 65 
0.92 -1.89 4.12 15 15 15 
2.97 3.35 1.18 146 146 146 
3.04 -0.47 0.51 74 74 74 
1.9 -1.81 3.02 34 34 34 
3.82 2.47 3.51 30 30 30 
3.65 1.15 -0.34 34 34 34 
1.18 -2.13 1.46 22 22 22 
3.5 -0.01 0.54 78 78 78 
1.52 0.08 2.58 42 42 42 
0.91 -1.93 5.37 16 16 16 
1.55 -1.76 1.13 8 8 8 
3.15 3.12 2.77 123 123 123 
1.79 -1.74 2.65 54 54 54 
1.8 -1.56 1.33 20 20 20 
2.39 -1.09 2.13 123 123 123 
3.84 2.34 1.52 206 206 206 
2.45 -1.14 1.49 26 26 26 
2.62 -0.15 -0.33 40 40 40 
1.05 -1.51 -0.31 18 18 18 
2.3 2.36 5.49 6 6 6 
1.32 -1.86 1.03 39 39 39 
2.43 2.96 -0.35 22 22 22 
3.09 3.28 2.17 26 26 26 
2.66 3.35 2.39 49 49 49 
1.94 -0.67 3.66 14 14 14 
2.47 3.45 1.3 115 115 115 
2.64 2 -0.32 32 32 32 
3.57 2.43 0.78 91 91 91 
1.1 -1.1 4.33 21 21 21 
2.18 0.86 -0.31 42 42 42 
1.38 -1.83 0.84 66 66 66 
2.75 -0.86 1.4 42 42 42 
1.57 0.55 3.16 90 90 90 
2.5 2.54 -0.35 32 32 32 
1.19 1.67 -0.3 27 27 27 
2.11 1.78 4.49 6 6 6 
3.79 1.08 -0.38 32 32 32 
1.3 2.24 -0.32 12 12 12 
4.34 0.73 0.43 50 50 50 
4.31 0.66 1.64 133 133 133 
1.81 0.4 -0.27 40 40 40 
1.64 -1.91 0.57 4 4 4 
3.37 0.29 -0.34 49 49 49 
3.55 0.01 -0.17 93 93 93 
4.62 1.55 0.46 84 84 84 
1.42 0.96 3.2 7 7 7 
1.34 -1.85 0.8 42 42 42 
0.39 1.94 5.21 11 11 11 
3.32 -0.15 0.59 77 77 77 
2.67 -0.39 -0.35 51 51 51 
3.56 -0.08 1.5 55 55 55 
2.58 -0.85 1.05 29 29 29 
3.18 3.07 1.5 193 193 193 
2.92 3.46 2.77 175 175 175 
4.17 1.96 0.48 35 35 35 
3.29 -0.25 0.51 82 82 82 
1.73 2.15 -0.33 38 38 38 
4.49 1.24 0.35 45 45 45 
2.94 3.37 0.79 123 123 123 
3.65 0.34 -0.38 57 57 57 
3.81 1.29 -0.34 25 25 25 
1.7 0.43 5.51 137 137 137 
3.36 2.64 0.79 76 76 76 
3.68 2.06 0.11 9 9 9 
2.67 3.28 2.99 255 255 255 
4.54 1.52 -0.27 46 46 46 
1.36 -1.03 -0.27 24 24 24 
2.83 1.77 -0.35 42 42 42 
2.37 2.46 -0.35 31 31 31 
3.77 2.47 2.99 41 41 41 
1.56 0.75 2.36 22 22 22 
3.21 3.17 3.22 75 75 75 
2.18 0.86 -0.29 53 53 53 
1.41 -1.95 1.14 34 34 34 
2.01 -0.25 -0.32 31 31 31 
2.78 3.44 -0.06 38 38 38 
2.22 -1.34 1.52 26 26 26 
3.55 2.72 1.89 208 208 208 
1.46 0.78 2.82 22 22 22 
4.43 1.41 -0.33 28 28 28 
3.88 2.28 0.57 37 37 37 
4.33 1.3 -0.29 73 73 73 
2.99 3.32 4.2 10 10 10 
3.3 2.91 0.03 69 69 69 
1.44 2.25 4.75 6 6 6 
1.92 0.56 -0.29 43 43 43 
3.2 0.98 -0.32 49 49 49 
2.62 -0.11 -0.34 74 74 74 
1.67 -1.6 2.31 44 44 44 
0.98 -0.87 -0.29 20 20 20 
3.72 2.02 -0.37 10 10 10 
3.16 -0.49 2.22 91 91 91 
2.57 -0.88 0.37 13 13 13 
1.36 2.4 3.85 50 50 50 
2.96 0.46 -0.36 66 66 66 
2.99 -0.57 0.71 64 64 64 
-0.02 -1.16 2.38 24 24 24 
2.54 3.54 0.31 40 40 40 
4.12 0.5 0.92 73 73 73 
0.82 -1.9 2.02 44 44 44 
3.49 2.38 -0.05 57 57 57 
2.7 -0.75 1.59 86 86 86 
4.35 1.6 0.79 108 108 108 
2.26 -1.29 1.37 26 26 26 
3.49 -0.03 -0.25 98 98 98 
0.95 -1.86 4.33 16 16 16 
2.59 -0.59 -0.34 49 49 49 
4.73 1.46 1.68 190 190 190 
1.54 2.39 3.76 31 31 31 
0.83 1.8 0.06 51 51 51 
2.56 3.55 0.41 40 40 40 
1.79 0.66 5.39 8 8 8 
4.19 1.97 1.46 174 174 174 
2.19 -0.43 -0.3 41 41 41 
4.5 1.29 -0.21 56 56 56 
2.97 -0.57 2.39 8 8 8 
1.86 2.26 -0.3 40 40 40 
2.92 3.36 4.08 13 13 13 
4.18 0.62 0.43 54 54 54 
2.94 0.91 -0.32 84 84 84 
0.78 -1.9 2.21 39 39 39 
3.62 1.5 -0.36 40 40 40 
2.93 -0.58 1.62 100 100 100 
2.93 3.39 5.2 157 157 157 
1.21 -2 0.92 5 5 5 
3.95 1.97 0.41 48 48 48 
2.09 2.97 -0.33 25 25 25 
2.48 -1.05 3.46 16 16 16 
2.08 2.66 -0.33 28 28 28 
3.08 3.14 1.29 155 155 155 
1.98 -1.56 1.63 17 17 17 
4.73 1.46 1.44 172 172 172 
2.15 -0.03 2.95 48 48 48 
3.01 3.24 0.43 82 82 82 
1.92 -0.88 5.65 11 11 11 
4.34 0.79 0.08 57 57 57 
3.46 1.46 -0.38 68 68 68 
3.17 0.97 -0.34 49 49 49 
3.11 3.3 3.5 74 74 74 
3.53 2.43 0.86 91 91 91 
3.66 0.55 -0.35 53 53 53 
3.14 -0.42 3.74 100 100 100 
1.57 0.81 2.16 22 22 22 
2.81 3.33 5.25 124 124 124 
1.73 0 3.65 45 45 45 
3.01 3.42 3.37 138 138 138 
2.58 -0.91 1.42 21 21 21 
3.46 -0.04 1.05 78 78 78 
4.16 0.55 0.6 57 57 57 
2.85 2.21 -0.34 28 28 28 
1.28 -2.07 3.93 14 14 14 
1.45 0.27 1.87 99 99 99 
3.01 -0.59 1.57 88 88 88 
1.66 -1.69 2.94 42 42 42 
0.86 -2.1 3.5 11 11 11 
2.62 0.16 -0.31 44 44 44 
2.01 -0.11 -0.29 45 45 45 
2.04 2.99 -0.33 36 36 36 
1.9 -0.18 2.95 11 11 11 
3.65 2.35 3.13 53 53 53 
2.69 -0.67 -0.25 48 48 48 
3.77 2.42 1.01 160 160 160 
3.26 -0.3 0.51 76 76 76 
2.68 -0.87 0.73 4 4 4 
2.39 -0.79 -0.33 40 40 40 
2.73 -0.85 1.15 29 29 29 
2.24 -1.33 1.42 23 23 23 
0.97 -1.93 1.09 38 38 38 
2.25 1.68 4.27 9 9 9 
2.71 3.55 4.46 11 11 11 
4.22 1.97 1.61 187 187 187 
2.71 3.53 3.26 77 77 77 
3.18 3.09 1.6 218 218 218 
3.56 2.73 3.62 27 27 27 
3.43 -0.18 1.06 72 72 72 
4.73 1.45 1.59 169 169 169 
2.91 -0.52 0.54 71 71 71 
1.61 0.41 3.49 168 168 168 
1.67 -1.46 -0.33 19 19 19 
3.36 -0.23 1.33 71 71 71 
2.07 -1.42 0.04 16 16 16 
1.6 1.14 2.98 9 9 9 
1.42 0.67 -0.28 27 27 27 
3.16 -0.4 0.89 77 77 77 
1.94 0.84 1.43 58 58 58 
0.72 -1.43 -0.27 23 23 23 
3.42 -0.32 3.37 38 38 38 
0.82 -1.94 -0.16 3 3 3 
0.21 1.7 5.25 19 19 19 
1.44 0.47 3.5 134 134 134 
1.93 2.38 -0.32 32 32 32 
3.23 3 1.7 185 185 185 
2.17 1.45 -0.3 53 53 53 
0.36 -1.47 3.34 40 40 40 
4.62 1.32 1.28 138 138 138 
3.67 2.53 0.87 155 155 155 
3 3.27 -0.24 51 51 51 
-0.26 -0.89 2.97 30 30 30 
2.96 3.23 -0.37 31 31 31 
3.36 2.66 0.9 158 158 158 
1.26 1.36 -0.29 34 34 34 
1.39 0.24 1.77 86 86 86 
3.28 -0.4 2.07 67 67 67 
3.22 -0.26 1.07 78 78 78 
2.6 3.53 0.99 107 107 107 
0.79 -1.91 1.84 51 51 51 
3.49 0.21 -0.38 63 63 63 
2.85 -0.6 0.76 73 73 73 
2.58 -0.97 3.37 37 37 37 
1.93 -0.5 -0.29 35 35 35 
2.48 2.22 -0.32 28 28 28 
3.31 2.95 1.32 193 193 193 
3.27 -0.35 1.44 82 82 82 
4.46 1.67 1.06 141 141 141 
3.21 3.04 0.65 53 53 53 
2.27 0.67 -0.29 44 44 44 
0.94 1.21 -0.28 35 35 35 
3.27 -0.26 1.63 63 63 63 
3.07 -0.51 3.08 26 26 26 
1.37 0.59 2.34 21 21 21 
1.82 -1.72 -0.21 2 2 2 
2.98 3.31 0.65 94 94 94 
2.11 -1.39 1.74 7 7 7 
2.88 -0.74 1.6 77 77 77 
2.05 1.62 3.2 7 7 7 
4.63 1.41 -0.08 62 62 62 
2.57 -0.98 3.11 20 20 20 
3.19 3.05 0.66 52 52 52 
1.99 2.07 -0.29 52 52 52 
1.85 2.25 -0.31 34 34 34 
1.39 0.65 2.23 26 26 26 
2.33 2.67 -0.3 26 26 26 
2.43 -0.84 -0.24 38 38 38 
2.85 3.43 0.95 112 112 112 
3.83 2.36 0.69 105 105 105 
1.54 0.53 2.73 72 72 72 
3.31 -0.32 2.21 107 107 107 
3.44 2.81 2.64 35 35 35 
3.1 3.24 4.37 12 12 12 
2.65 3.34 1.67 17 17 17 
2.63 0.48 -0.34 52 52 52 
3.3 2.92 4.74 8 8 8 
4.61 1.39 0.04 67 67 67 
3.3 -0.28 1.34 82 82 82 
4.24 0.58 1.68 144 144 144 
3.1 3.15 2.34 45 45 45 
3.67 0.11 0.44 136 136 136 
2.55 1.67 -0.35 41 41 41 
1.37 0.22 3.69 39 39 39 
4.46 1.23 -0.33 37 37 37 
2.41 -1.15 1.35 21 21 21 
3.05 3.19 0.82 104 104 104 
3.86 0.21 1.11 57 57 57 
2.61 3.32 -0.17 47 47 47 
2.9 3.44 1.56 169 169 169 
2.94 -0.83 3.25 23 23 23 
1.95 -1.07 2.73 6 6 6 
0.79 -2.03 1.89 14 14 14 
2.57 1.06 -0.32 53 53 53 
3.17 3.04 1.48 184 184 184 
4.08 0.42 1.63 66 66 66 
2.75 2.7 -0.33 28 28 28 
1.19 -2.12 1.29 23 23 23 
3.15 -0.31 0.69 83 83 83 
4.73 1.44 1.41 99 99 99 
2.24 2.58 -0.29 32 32 32 
2.12 1.91 2.99 34 34 34 
1.39 0.67 1.53 22 22 22 
1.7 0 3.65 38 38 38 
2.78 -0.92 1.51 8 8 8 
2.76 -0.73 -0.23 49 49 49 
4.73 1.44 1.34 112 112 112 
2.64 3.31 1.77 157 157 157 
2.51 0.5 -0.3 47 47 47 
3.07 2.85 0.54 87 87 87 
2.5 -0.87 0.88 17 17 17 
3.58 2.17 -0.29 79 79 79 
0.46 -1.62 3.27 40 40 40 
3.73 2.46 -0.15 30 30 30 
3.87 1.4 -0.38 26 26 26 
2.57 3.52 0.89 113 113 113 
4.66 1.01 1.46 130 130 130 
0.83 -2.02 1.17 50 50 50 
1.43 -1.77 0.71 37 37 37 
3.01 3.21 1.01 138 138 138 
1.45 2.33 3.14 13 13 13 
1.56 1.04 2.94 8 8 8 
1.47 0.13 1.64 22 22 22 
4.73 1.44 1.13 107 107 107 
2.6 3.48 -0.09 42 42 42 
0.98 -1.83 1.31 46 46 46 
2.14 -1.31 0.44 17 17 17 
1.59 -1.84 0.49 4 4 4 
0.55 -1.61 0 52 52 52 
4.35 1.84 1.63 182 182 182 
2.75 -0.94 3.6 41 41 41 
1.61 -1.7 2.62 104 104 104 
1.95 -1.54 1.76 16 16 16 
2.31 -0.16 5.43 7 7 7 
3.53 2.46 0.22 66 66 66 
0.79 -1.91 1.74 55 55 55 
1.54 2.48 1.94 67 67 67 
3.27 1.04 -0.37 35 35 35 
2.75 3.51 5.17 19 19 19 
1.94 -1.48 1.51 24 24 24 
2.45 0.81 -0.34 39 39 39 
3.18 -0.47 1.67 47 47 47 
4.48 0.91 0.41 74 74 74 
2.82 3.44 0.36 65 65 65 
1.86 -1.23 -0.28 4 4 4 
4.58 1.55 1.21 163 163 163 
1.48 1.55 -0.28 33 33 33 
3.43 -0.08 0.43 100 100 100 
3.13 -0.56 3.8 251 251 251 
2.41 -0.12 -0.32 52 52 52 
1.39 2.49 4.25 41 41 41 
1.15 0.62 2.97 13 13 13 
3.43 -0.14 0.57 73 73 73 
3.06 -0.42 1.51 74 74 74 
1.3 -0.36 2.74 14 14 14 
4.15 1.75 0.81 99 99 99 
2.69 -0.84 0.03 5 5 5 
0.91 -1.89 3.83 10 10 10 
2.1 2.18 5.51 5 5 5 
1.14 -2.03 -0.13 19 19 19 
2.3 1.46 -0.31 46 46 46 
1.79 -0.92 -0.31 31 31 31 
1.36 0.83 -0.27 34 34 34 
4.5 0.91 0.8 110 110 110 
1.81 -1.71 2.73 32 32 32 
1.78 0.65 5.51 7 7 7 
2.48 2.12 4.29 24 24 24 
3.38 2.92 3.63 29 29 29 
1.43 0.97 3.2 5 5 5 
2.32 -1.17 1.87 40 40 40 
3.12 -0.43 0.89 53 53 53 
1.97 -1.44 0.55 18 18 18 
4.54 1.29 -0.28 54 54 54 
2.8 -0.92 3.17 36 36 36 
3.94 1.04 -0.35 32 32 32 
1.07 -0.15 2.95 23 23 23 
2.79 -0.8 1.58 84 84 84 
1.68 -1.19 -0.31 23 23 23 
4 1.32 -0.37 30 30 30 
1.2 1.23 5.53 6 6 6 
1.92 -1.45 3.62 8 8 8 
0.49 0.87 2.77 15 15 15 
1.86 1.32 2.89 18 18 18 
3.01 3.22 2.46 53 53 53 
0.87 -1.88 1.31 48 48 48 
2.77 0.1 -0.32 51 51 51 
0.08 1.1 2.6 59 59 59 
2.7 -0.48 -0.27 29 29 29 
2.63 3.49 4.59 8 8 8 
3.3 2.57 0.15 69 69 69 
4.55 1.16 1.56 143 143 143 
3.67 0.01 1.78 200 200 200 
1.37 0.35 1.81 106 106 106 
3.68 2.45 0.78 109 109 109 
0.51 -1.57 -0.09 52 52 52 
2.48 2.64 -0.35 25 25 25 
2.81 -0.7 -0.05 44 44 44 
3.87 2.29 0.92 127 127 127 
4.49 1.27 0.26 72 72 72 
3.67 0.03 1.82 66 66 66 
3.28 2.93 4.65 7 7 7 
4.26 0.65 1.13 77 77 77 
3.79 0.15 0.98 54 54 54 
2.74 2.75 -0.33 29 29 29 
1.4 0.41 2.58 25 25 25 
1.78 -0.23 -0.29 37 37 37 
1.8 2.06 -0.33 36 36 36 
3.67 2.59 2.69 38 38 38 
3.59 2.56 3.21 36 36 36 
3.86 0.32 -0.09 98 98 98 
4.73 1.42 1.57 144 144 144 
2.1 -1.46 1.27 18 18 18 
2.68 -0.8 0.5 10 10 10 
1.57 0.77 1.51 24 24 24 
3.98 2.21 1.63 196 196 196 
3.04 3.29 4.27 12 12 12 
2.02 2.3 -0.34 38 38 38 
1.76 -1.72 2.22 29 29 29 
2.44 -1.12 1.47 24 24 24 
2.82 -0.8 3.82 86 86 86 
2.57 3.13 3.17 107 107 107 
3.3 -0.37 2.52 90 90 90 
3.12 3.09 0.12 81 81 81 
1.03 -1.88 1.64 7 7 7 
2.1 -1.44 3.06 13 13 13 
3.08 3.34 3.34 122 122 122 
3.76 0.22 1.24 60 60 60 
3 3.48 4.41 7 7 7 
2.32 2.73 -0.36 30 30 30 
2.52 -0.99 -0.05 6 6 6 
3.34 2.87 2.79 55 55 55 
2.66 -0.76 1.58 87 87 87 
3.97 2.3 3.53 38 38 38 
3.35 -0.18 0.32 106 106 106 
1.8 -0.03 3.65 85 85 85 
3.02 3.29 2.26 33 33 33 
4.29 0.64 1.33 65 65 65 
3.12 -0.49 3.71 58 58 58 
4.73 1.42 1.27 121 121 121 
1.8 -1 -0.32 30 30 30 
0.95 -1.91 0.2 35 35 35 
3.71 2.28 0.87 114 114 114 
2.07 -1.09 -0.2 30 30 30 
1.57 -1.71 1.92 93 93 93 
2.95 -0.52 0.39 33 33 33 
2.98 -0.84 3.7 76 76 76 
2.89 -0.55 0.77 76 76 76 
3.69 0.01 1.78 180 180 180 
1.33 1.38 5.55 6 6 6 
3.63 0.01 0.96 67 67 67 
1.89 1.32 4.36 10 10 10 
4.59 1.56 1.16 147 147 147 
2.71 -0.94 1.53 6 6 6 
1.82 -1.24 -0.25 17 17 17 
3.39 -0.11 -0.15 94 94 94 
1.12 0.63 2.97 10 10 10 
4.73 1.41 1.66 150 150 150 
4.37 0.74 0.7 52 52 52 
2.35 -1.01 -0.22 4 4 4 
1.31 -0.68 4.4 18 18 18 
2.08 -1.45 2.86 15 15 15 
4.5 1.17 0.63 70 70 70 
2.21 -1.23 1.88 1 1 1 
4.29 1.88 1.64 182 182 182 
3.47 2.86 3.14 46 46 46 
3.13 3.15 2.65 112 112 112 
4.54 1.28 1.06 130 130 130 
3.94 2.05 0.53 71 71 71 
2.98 1.18 -0.36 49 49 49 
2.68 -0.78 1.71 90 90 90 
0.26 0.94 2.93 12 12 12 
1.27 2.03 -0.31 36 36 36 
3.59 0.02 0.74 72 72 72 
2.03 2.23 -0.31 40 40 40 
2.63 -0.85 0.97 3 3 3 
1.19 -2.08 1.99 26 26 26 
4.28 1.84 -0.33 46 46 46 
0.34 1.21 2.95 3 3 3 
4.65 1.07 0.51 88 88 88 
2.58 -0.93 0.89 19 19 19 
2.93 0.98 -0.32 64 64 64 
2.46 -0.02 -0.32 40 40 40 
2.88 -0.62 0.79 73 73 73 
2.35 -1.13 0.63 22 22 22 
2.71 -0.63 0.31 50 50 50 
0.8 -2.03 1.34 55 55 55 
4.14 1.67 -0.03 34 34 34 
0.62 -1.66 3.27 9 9 9 
3.1 -0.65 3.83 195 195 195 
4.48 0.81 1.3 97 97 97 
1.6 -0.67 4.37 16 16 16 
3.83 1.86 -0.33 67 67 67 
1.3 0.64 -0.27 28 28 28 
1.71 -1.73 0.81 7 7 7 
3.17 -0.42 1.03 80 80 80 
2.14 0.64 -0.31 42 42 42 
2.03 1.18 -0.29 41 41 41 
2.14 -1.41 3.48 9 9 9 
4.44 1.7 0.52 48 48 48 
1.43 0.78 2.42 21 21 21 
4.59 0.97 1.24 124 124 124 
4.34 1.03 -0.35 41 41 41 
4.39 1.71 0.53 43 43 43 
3.45 2.75 0.23 46 46 46 
3.25 3.02 1.71 202 202 202 
2.89 -0.7 2.98 15 15 15 
2.34 0.94 -0.3 43 43 43 
1.86 0.47 -0.3 46 46 46 
3.28 3.06 2.73 67 67 67 
2.27 -0.11 -0.3 46 46 46 
1.67 -1.65 3.15 23 23 23 
1.9 -1.59 1.79 8 8 8 
3.44 -0.1 0.55 84 84 84 
3.04 -0.03 -0.35 57 57 57 
2.62 -0.83 1.01 3 3 3 
3.13 0.97 -0.34 53 53 53 
3.32 -0.2 0.98 81 81 81 
2.36 -1.16 0.71 22 22 22 
0.44 -1.48 -0.21 54 54 54 
4.21 1.68 0.49 58 58 58 
4.29 0.69 0.48 54 54 54 
3.6 0.46 -0.38 54 54 54 
2.4 -1.06 1.84 99 99 99 
2.86 -0.68 3.43 140 140 140 
3.15 -0.59 3.61 66 66 66 
3.59 -0.07 1.88 208 208 208 
2.48 -0.91 0.94 29 29 29 
2.53 -0.84 -0.26 32 32 32 
2.53 3.48 1.18 107 107 107 
2.6 2.74 -0.35 29 29 29 
4.18 1.99 0.92 151 151 151 
4.26 1.87 0.04 35 35 35 
2.82 -0.65 0.65 70 70 70 
0.97 -1.8 1.22 44 44 44 
1.64 -1.65 2.44 64 64 64 
2.76 -0.76 2.55 16 16 16 
3.21 3.23 5.46 20 20 20 
2.86 2.9 -0.35 25 25 25 
3.24 2.71 0.42 91 91 91 
2.62 3.51 0.51 47 47 47 
3.21 -0.41 1.84 62 62 62 
1.34 0.36 -0.28 31 31 31 
3.25 0.25 -0.38 95 95 95 
2.59 3.32 0.33 68 68 68 
1.38 2.54 5.01 23 23 23 
3.45 2.43 3.29 22 22 22 
2.68 -0.76 0.58 74 74 74 
4.61 1 1.01 117 117 117 
1.89 1.73 -0.31 38 38 38 
2.78 3.45 0.63 90 90 90 
3.3 2.93 4.97 11 11 11 
4.15 2.01 0.82 109 109 109 
3.16 2.69 0.15 67 67 67 
2.68 -0.8 0.91 39 39 39 
3.5 -0.11 1.77 142 142 142 
3.46 2.52 3.38 21 21 21 
2.45 -1.18 0.96 19 19 19 
2.8 -0.6 0.49 47 47 47 
4.03 2.15 1.7 196 196 196 
2.14 -1.42 1.33 22 22 22 
3.15 3.1 -0.19 55 55 55 
0.44 -1.59 3.84 24 24 24 
4.73 1.25 0.14 42 42 42 
2.8 3.47 4.36 13 13 13 
4.58 1.54 -0.1 56 56 56 
0.34 1.21 2.91 20 20 20 
1.89 2.29 2.73 14 14 14 
2.68 -0.84 2.14 107 107 107 
2.05 2.78 5.5 8 8 8 
1.25 1.29 5.75 6 6 6 
1.83 -0.69 4.31 16 16 16 
3.54 2.64 1.51 203 203 203 
1.37 1.74 5.61 7 7 7 
4.32 1.16 -0.35 36 36 36 
3.35 -0.19 0.99 92 92 92 
1.45 -0.77 4.56 12 12 12 
0.34 -1.38 0.17 10 10 10 
2.75 0.04 -0.36 42 42 42 
3.21 3.2 3.72 48 48 48 
2.52 -0.93 3.09 167 167 167 
3.15 -0.37 0.52 71 71 71 
3.68 0.63 -0.34 54 54 54 
4.03 0.48 0.19 100 100 100 
3.84 2.35 1.79 221 221 221 
0.72 1.29 -0.29 38 38 38 
1.07 0.57 -0.28 28 28 28 
3.57 2.44 0.68 90 90 90 
2.74 -0.9 0.55 7 7 7 
0.84 -1.3 -0.3 34 34 34 
3.66 2.25 0.45 71 71 71 
1.53 -0.66 4.38 19 19 19 
0.84 -2.01 0.9 43 43 43 
1.03 -0.91 4.37 21 21 21 
3.8 1.53 -0.35 99 99 99 
2.22 0.24 -0.32 55 55 55 
2.96 -0.51 1.06 86 86 86 
1.31 -1.96 1.3 37 37 37 
2.54 -0.96 2.13 117 117 117 
3.68 0.02 1.32 51 51 51 
3 3.44 5.19 20 20 20 
2.63 3.52 1.62 63 63 63 
2.14 2.29 -0.33 50 50 50 
1.45 -1.76 0.79 5 5 5 
3.9 2.32 1.82 207 207 207 
0.89 -1.91 0.93 42 42 42 
3.6 2.56 1.13 172 172 172 
3.6 2.58 2.88 19 19 19 
3.59 2.3 0.38 38 38 38 
1.2 -2.05 1.18 37 37 37 
1.21 -2.04 0.75 15 15 15 
2.54 -0.93 0.46 16 16 16 
2.08 2.95 5.67 8 8 8 
3.23 1.23 -0.35 49 49 49 
2.61 3.52 0.76 78 78 78 
2.29 -1.35 3.24 11 11 11 
3.57 0.34 -0.35 54 54 54 
1.47 2.46 -0.33 67 67 67 
4.63 1.21 0.29 41 41 41 
4.41 1.76 0.8 154 154 154 
3.93 2.27 2.92 122 122 122 
1.4 -1.67 -0.31 3 3 3 
1.39 2.28 4.9 8 8 8 
2.85 -0.7 0.96 73 73 73 
2.72 -0.92 1.5 3 3 3 
2.68 -0.76 0.87 80 80 80 
1.42 1.35 5.4 254 254 254 
2.16 -0.11 2.75 31 31 31 
3 -0.55 0.62 72 72 72 
2.12 -1.26 2.72 5 5 5 
3.62 2.62 2.61 33 33 33 
1.24 -0.6 -0.27 33 33 33 
1.8 -1.49 2.13 152 152 152 
2.14 -0.28 -0.28 43 43 43 
2.98 -0.54 1.67 97 97 97 
3.05 -0.44 0.26 33 33 33 
2.88 -0.54 0.11 28 28 28 
1.28 2.3 4.9 6 6 6 
4.56 0.95 0.07 50 50 50 
4.19 0.56 0.86 56 56 56 
2.64 3.3 0.54 71 71 71 
2.26 0.82 -0.32 53 53 53 
3.38 -0.29 2.78 120 120 120 
3.71 0.11 1.32 61 61 61 
3.04 3.18 -0.3 56 56 56 
1.24 -2.02 1.35 33 33 33 
0.95 -1.02 -0.27 21 21 21 
3.85 0.3 0.07 95 95 95 
4.47 1.71 1.75 195 195 195 
3.07 -0.39 0.42 32 32 32 
2.11 2.14 2.71 13 13 13 
1.68 -0.67 4.54 10 10 10 
2.73 -0.21 -0.33 45 45 45 
3.35 -0.3 2.45 194 194 194 
2.67 -0.88 -0.23 6 6 6 
0.71 1.01 -0.26 24 24 24 
3.12 1.04 -0.37 42 42 42 
4.49 1.61 1.23 156 156 156 
1.45 0.18 2.49 23 23 23 
1.37 -1.58 -0.27 13 13 13 
2.66 -0.91 -0.13 6 6 6 
1.43 -1.85 0.87 38 38 38 
0.44 -1.62 3.46 11 11 11 
2.29 0.53 -0.3 43 43 43 
1.92 -1.11 2.73 34 34 34 
3.3 -0.44 3.69 81 81 81 
2.66 3.55 2.72 65 65 65 
1.3 -0.96 -0.27 23 23 23 
1.85 0.08 -0.31 43 43 43 
2.87 -0.86 3.66 50 50 50 
3.18 -0.5 2.16 69 69 69 
1.61 -1.68 -0.3 3 3 3 
1.29 1.76 -0.26 30 30 30 
4.63 1.03 -0.01 58 58 58 
4.48 1.22 0.53 58 58 58 
2.24 -1.29 3.93 10 10 10 
2.88 -0.62 1.42 89 89 89 
2.65 3.43 1.36 123 123 123 
1.24 1.48 -0.31 19 19 19 
2 1.52 -0.32 35 35 35 
4.48 0.85 0.57 91 91 91 
3.59 0.3 -0.37 64 64 64 
1.22 -1.36 -0.29 31 31 31 
3.13 3.14 0.64 87 87 87 
0.85 -1.87 0.94 33 33 33 
3.47 2.54 3.34 23 23 23 
3.91 2.07 0.38 34 34 34 
3 -0.69 3.72 153 153 153 
0.97 -1.94 2.09 36 36 36 
2.02 1.43 4.4 10 10 10 
3.3 2.99 4.91 8 8 8 
2.9 0.59 -0.34 53 53 53 
4.07 1.6 -0.36 61 61 61 
3.41 2.9 3.16 46 46 46 
4.01 0.4 0.69 61 61 61 
3.14 3.24 4.04 25 25 25 
3.13 -0.43 0.9 72 72 72 
2 -1.49 0.67 18 18 18 
0.99 -2.01 3.76 18 18 18 
0.96 -1.85 3.9 18 18 18 
4.54 1.17 1.59 160 160 160 
2.72 3.43 5.51 21 21 21 
1.25 1.26 5.75 5 5 5 
0.95 1.06 -0.27 28 28 28 
2.59 -0.88 1.73 5 5 5 
2.56 3.54 0.31 36 36 36 
1.75 -1.58 0.76 15 15 15 
2.56 3.51 1.68 86 86 86 
3.5 -0.02 -0.13 101 101 101 
2.21 -1.2 0.72 17 17 17 
1.14 -2.04 0.64 37 37 37 
3.98 1.87 0.44 63 63 63 
0.9 -2.02 2.04 37 37 37 
2.41 -1.16 1.66 11 11 11 
3.86 2.36 3.17 64 64 64 
1.2 -1.97 -0.25 7 7 7 
1.71 1.22 3.19 5 5 5 
2.71 -0.67 -0.18 46 46 46 
4.59 1.39 -0.07 63 63 63 
4.73 1.23 0.5 49 49 49 
4.49 1.17 0.32 40 40 40 
4.61 0.93 1.63 137 137 137 
2.85 -0.62 1.02 99 99 99 
2.1 1.68 2.95 13 13 13 
2.67 3.42 1.67 67 67 67 
4.73 1.23 0.44 46 46 46 
1.87 -0.34 3.14 34 34 34 
2.96 -0.02 -0.36 67 67 67 
1.64 1.93 -0.28 25 25 25 
2.93 -0.53 0.66 84 84 84 
1.24 -1.92 0.74 52 52 52 
3.31 -0.37 2.74 106 106 106 
2.32 -0.93 0.14 20 20 20 
3.73 0.06 1.73 174 174 174 
3.79 0.26 0.99 57 57 57 
3.21 -0.42 1.75 58 58 58 
2.29 3.23 0.43 45 45 45 
3.22 3.04 1.67 202 202 202 
1.33 -1.91 0.64 35 35 35 
3.91 1.8 -0.31 70 70 70 
0.76 1.72 -0.16 48 48 48 
0.62 1.03 -0.26 37 37 37 
1.59 -0.83 -0.31 30 30 30 
2.24 -0.17 -0.3 40 40 40 
1.72 2.13 -0.29 27 27 27 
3.44 -0.27 3.08 17 17 17 
4.14 0.55 0.21 63 63 63 
4.21 1.6 0.37 43 43 43 
2.41 -1.1 2.45 11 11 11 
3.65 2.6 2.95 38 38 38 
4.73 1.23 0.19 40 40 40 
0.87 -1.99 0.51 36 36 36 
3.46 2.89 3.66 25 25 25 
4.16 1.22 -0.38 36 36 36 
3.18 2.23 -0.38 28 28 28 
4.27 1.88 0.82 51 51 51 
3.65 2.59 1.96 217 217 217 
1.61 0.93 2.22 14 14 14 
1.42 0.37 2.42 28 28 28 
1.16 1.37 -0.3 24 24 24 
2.75 3.27 5.17 40 40 40 
3.87 2.31 0.62 37 37 37 
2.4 -1.09 2.23 17 17 17 
4.11 2.11 1.82 183 183 183 
3.02 -0.34 -0.09 32 32 32 
2.94 -0.65 3.84 255 255 255 
4.43 0.82 0.31 53 53 53 
0.85 -2.03 1.83 31 31 31 
1.84 -1.64 2 115 115 115 
2.78 -0.8 3.61 73 73 73 
3.16 -0.48 1.57 81 81 81 
2.86 -0.71 1.57 84 84 84 
2.95 -0.45 0.42 41 41 41 
2.96 3.47 4.49 7 7 7 
3.18 2.63 4.25 6 6 6 
1.68 -1.64 2.46 67 67 67 
3.08 3.21 0.62 83 83 83 
2.87 -0.72 3.66 128 128 128 
3.33 -0.33 2.51 93 93 93 
3.15 2.76 0.04 65 65 65 
2.82 2.59 -0.31 24 24 24 
1.43 2.35 4.14 5 5 5 
1.33 -1.84 1.03 41 41 41 
4.73 1.23 -0.14 35 35 35 
4.6 1.37 0 63 63 63 
1.69 -1.81 2.68 101 101 101 
2.74 3.58 4.57 10 10 10 
3.11 -0.54 2.05 65 65 65 
1.66 -0.54 5.7 12 12 12 
1.96 1.74 -0.28 46 46 46 
3.04 1 -0.33 51 51 51 
0.97 -1.85 0.63 37 37 37 
3.49 -0.14 1.53 57 57 57 
2.17 3.15 0.72 89 89 89 
0.76 -1.93 2.2 49 49 49 
3.49 2.73 0.91 139 139 139 
1.98 -1.45 1.45 19 19 19 
1.58 0.44 -0.29 38 38 38 
0.83 -1.93 5.36 10 10 10 
2.72 3.47 2.32 40 40 40 
3.39 -0.15 1.17 79 79 79 
2.71 3.33 2.95 255 255 255 
2.32 3.13 5.59 17 17 17 
2.82 1.84 -0.35 41 41 41 
4.57 1.52 1.07 140 140 140 
0.99 0.89 -0.28 29 29 29 
0.77 -1.86 0.77 39 39 39 
3.61 2.71 3.51 21 21 21 
1.82 -0.59 -0.28 41 41 41 
3.23 3 -0.29 32 32 32 
0.43 -1.7 2.68 4 4 4 
0.38 -1.54 1.32 65 65 65 
-0.37 -0.83 3.48 68 68 68 
4.17 0.65 -0.26 57 57 57 
3.5 2.73 0.68 48 48 48 
3.81 0.26 0.34 104 104 104 
3.14 -0.54 2.98 24 24 24 
3.87 2.28 0.19 33 33 33 
3.02 -0.56 2.7 10 10 10 
2.2 1.57 -0.31 50 50 50 
1.4 -0.01 -0.26 39 39 39 
2.7 3.44 1.99 192 192 192 
4.44 1.74 1.55 182 182 182 
3.92 1.99 0.27 38 38 38 
2.47 3.43 1.17 106 106 106 
4.6 1.31 1.72 164 164 164 
4.44 1.7 0.98 145 145 145 
4.24 1.49 0.05 57 57 57 
2.03 -0.21 -0.3 37 37 37 
3.4 -0.36 3.39 28 28 28 
2.61 3.44 0.17 50 50 50 
2.59 2.26 4.47 6 6 6 
2.24 0.87 -0.31 45 45 45 
4.17 0.8 -0.35 33 33 33 
2.72 3.26 4.27 45 45 45 
2.04 -0.51 -0.28 33 33 33 
3.41 -0.12 0.22 103 103 103 
3.85 0.71 -0.39 43 43 43 
1.28 0.61 -0.28 28 28 28 
1.53 0.37 1.46 24 24 24 
1.63 0.92 -0.3 35 35 35 
4.25 1.58 0.4 65 65 65 
3.67 2.61 2.88 16 16 16 
1.13 0.64 2.97 8 8 8 
2.51 0.26 -0.34 46 46 46 
1.41 0.44 3.12 118 118 118 
3.92 0.51 -0.39 55 55 55 
2.43 -1 0.69 26 26 26 
2.59 3.54 0.4 37 37 37 
2.9 2.25 -0.33 28 28 28 
1.22 -0.29 -0.29 29 29 29 
4.55 1.6 1.03 141 141 141 
3.45 2.88 3.16 48 48 48 
3.9 0.27 1.82 63 63 63 
1.53 0.64 2.43 20 20 20 
0.95 -1.91 0.19 36 36 36 
0.86 1.69 -0.29 27 27 27 
3.1 -0.48 0.81 72 72 72 
0.79 -1.95 0.07 9 9 9 
-0.17 0.8 3.36 16 16 16 
2.62 -0.94 3.32 37 37 37 
3.07 -0.59 2.09 34 34 34 
0.79 -1.99 0.87 34 34 34 
2.72 2.08 -0.33 46 46 46 
3.48 2.76 1.52 201 201 201 
0.55 -1.64 1.3 56 56 56 
3.18 2.7 0.16 34 34 34 
3.16 3.16 3.37 87 87 87 
1.47 -0.67 2.76 8 8 8 
1.96 -1.39 3.33 15 15 15 
1.61 0.1 -0.28 58 58 58 
0.85 -2.08 2.56 2 2 2 
3.48 1.03 -0.36 43 43 43 
2.63 -0.75 0.47 49 49 49 
3.45 2.76 2.96 39 39 39 
2.75 3.29 5.21 35 35 35 
1.47 0.9 2.94 13 13 13 
3.93 1.93 0.77 15 15 15 
1.39 -1.9 1.02 45 45 45 
4.3 1.24 -0.33 35 35 35 
4.73 1.22 0.59 58 58 58 
2.68 3.47 5.47 11 11 11 
4.73 1.22 0.57 52 52 52 
2.93 -0.73 1.89 97 97 97 
3.5 2.72 0.17 37 37 37 
0.87 -1.13 4.57 15 15 15 
3.98 2.2 1.88 201 201 201 
2.12 -1.38 0.12 16 16 16 
3.25 2.94 4.56 8 8 8 
2.51 2.38 5.6 8 8 8 
3.35 2.96 3.63 30 30 30 
2.87 3.38 1.43 164 164 164 
3.19 -0.21 0 53 53 53 
3.97 2.21 0.97 159 159 159 
2.66 3.55 2.91 245 245 245 
3.28 2.91 3.97 25 25 25 
2.29 -1.08 0.08 22 22 22 
4.13 1.63 -0.01 42 42 42 
2.26 1.66 2.96 6 6 6 
2.06 0.99 -0.33 46 46 46 
3.5 -0.03 0.27 103 103 103 
2.99 3.38 2.39 46 46 46 
3.29 2.97 0.95 159 159 159 
1.28 -1.79 -0.29 27 27 27 
1.97 0.9 1.43 22 22 22 
2.09 -1.3 0.74 18 18 18 
3.26 0.87 -0.35 47 47 47 
1.15 -2.09 0.86 29 29 29 
0.61 -1.77 0.15 6 6 6 
2.77 -0.75 1.61 86 86 86 
0.8 -1.94 0.07 40 40 40 
1.47 -1.82 1.27 6 6 6 
4.73 1.22 0.27 43 43 43 
4.62 1.48 1.14 148 148 148 
0.94 -0.91 -0.29 19 19 19 
2.17 2.02 2.98 9 9 9 
2.97 -0.74 3.46 66 66 66 
3.09 3.13 1.04 137 137 137 
0.42 -1.56 1.1 5 5 5 
1.39 -1.83 0.61 44 44 44 
2.91 -0.63 2.57 8 8 8 
1.05 -1.95 2.49 36 36 36 
2.99 2.63 4.23 18 18 18 
2.93 3.36 0.19 69 69 69 
1.79 -1.49 1.84 11 11 11 
2.03 -1.13 -0.21 31 31 31 
1.07 -0.27 2.97 7 7 7 
1 -1.92 2.11 36 36 36 
3.99 0.68 -0.37 44 44 44 
2.88 -0.84 3.71 57 57 57 
1.89 -0.6 3.65 41 41 41 
3.84 2.34 1.5 197 197 197 
1.57 0.77 2.29 20 20 20 
3.8 0.18 1.84 54 54 54 
3.75 2.52 3.11 47 47 47 
3.46 2.83 2.79 48 48 48 
3.24 3.07 2.68 50 50 50 
4.62 1.47 1.8 219 219 219 
2.41 0.03 5.49 9 9 9 
0.53 -1.62 -0.29 17 17 17 
0.84 0.35 3.17 10 10 10 
1.4 0.53 2.53 25 25 25 
0.75 -1.84 0.8 67 67 67 
3.18 2.63 4.34 17 17 17 
2.92 3.42 2.27 44 44 44 
2.62 -0.9 1.63 21 21 21 
2.61 -0.91 3.73 26 26 26 
3.89 2.29 1.17 171 171 171 
4.48 1.16 1.63 40 40 40 
1.8 -1.7 2.26 31 31 31 
2.7 -0.88 0.56 6 6 6 
1.34 1.84 -0.3 28 28 28 
0.29 -1.44 1.94 64 64 64 
1.73 1.97 2.84 17 17 17 
1.84 -0.5 2.94 18 18 18 
4.56 1.58 0.1 48 48 48 
0.41 1.35 4.79 5 5 5 
3.73 0.12 1.66 130 130 130 
3.59 2.33 0.38 65 65 65 
1.35 -1.86 -0.24 10 10 10 
2.52 1.5 2.84 28 28 28 
3.51 2.71 2.91 18 18 18 
3.12 3.08 1.49 184 184 184 
4.73 1.22 -0.24 34 34 34 
2.73 -0.73 1.74 90 90 90 
3.39 2.42 0.14 32 32 32 
1.2 -2.03 0.66 25 25 25 
3.44 -0.12 1.59 56 56 56 
2.92 -0.71 1.73 82 82 82 
1.51 0.52 1.46 15 15 15 
2.88 0.24 -0.33 53 53 53 
2.63 3.52 3.09 19 19 19 
3.41 2.79 3.57 24 24 24 
3.01 3.47 4.07 14 14 14 
3.06 -0.44 1.44 79 79 79 
3.35 2.9 1.17 162 162 162 
3.96 0.34 1 58 58 58 
1.08 -1.95 3.2 16 16 16 
3.11 -0.71 4.3 255 255 255 
4.36 1.34 -0.31 28 28 28 
2.03 2.81 5.54 13 13 13 
2.35 0.76 -0.31 44 44 44 
1.51 2.34 4.52 4 4 4 
4.65 1.04 0.61 89 89 89 
3.11 3.12 2.18 255 255 255 
2.66 3.28 4.25 100 100 100 
2.98 0.61 -0.32 55 55 55 
0.33 -1.32 2.66 12 12 12 
4.06 0.46 1.73 65 65 65 
0.45 1.44 4.92 3 3 3 
2.39 -1.13 0.5 21 21 21 
2.02 -1.53 1.26 21 21 21 
3.26 -0.49 3.56 37 37 37 
3.24 -0.45 2.81 14 14 14 
3.1 -0.38 5.72 8 8 8 
2.89 3.42 2.48 124 124 124 
2.73 3.34 2.99 255 255 255 
3.47 2.84 2.88 47 47 47 
0.99 -1.84 1.03 147 147 147 
3.96 0.92 -0.34 33 33 33 
1.35 -1.01 4.53 13 13 13 
4.73 1.21 1.34 142 142 142 
3.11 3.23 2.61 104 104 104 
1.79 -0.03 -0.29 38 38 38 
2.76 -0.68 1.46 84 84 84 
3.98 2.18 0.83 113 113 113 
2.32 -0.41 -0.33 46 46 46 
3.16 -0.42 0.76 86 86 86 
2.93 -0.54 1.03 78 78 78 
3.37 2.9 3.58 32 32 32 
-0.13 -1 3.39 58 58 58 
0.91 -1.85 1.33 45 45 45 
3.47 -0.09 0.03 109 109 109 
2.25 2.98 5.47 9 9 9 
2.75 -0.96 1.25 5 5 5 
3.28 3 2.94 55 55 55 
2.48 1.85 4.41 6 6 6 
1.88 1.52 -0.32 34 34 34 
2.75 2.27 -0.35 32 32 32 
2.61 -0.77 -0.09 13 13 13 
2.23 1.38 -0.31 53 53 53 
4.04 2.18 1.75 208 208 208 
3.58 0.39 -0.38 52 52 52 
4.59 1.19 1.43 114 114 114 
2.37 -1.02 -0.2 3 3 3 
3.69 0.06 1.08 60 60 60 
3.79 2.36 0.69 41 41 41 
3.99 1.04 -0.35 32 32 32 
0.82 -2 0.88 49 49 49 
2.85 1.41 -0.34 40 40 40 
2.06 -0.2 2.84 40 40 40 
3.12 3.25 1.9 227 227 227 
1.46 -1.47 -0.27 6 6 6 
4.56 1.61 0.68 116 116 116 
3 -0.55 1.31 85 85 85 
3.14 3.21 3.46 67 67 67 
2.73 -0.71 1.47 90 90 90 
3.75 2.44 1.17 166 166 166 
4.18 2.01 1.27 173 173 173 
3.22 -0.55 3.67 53 53 53 
1.83 -1.72 3.81 9 9 9 
4.59 0.98 1.15 127 127 127 
3.28 2.84 0.73 41 41 41 
2.76 -0.65 0.93 71 71 71 
2.72 -0.67 -0.17 47 47 47 
4.54 0.96 -0.02 44 44 44 
2.35 -1.2 0.87 21 21 21 
4.15 2.02 0.36 57 57 57 
4.27 1.82 0.71 67 67 67 
0.91 -2.08 3.69 13 13 13 
3.19 -0.42 3.57 34 34 34 
2.19 1.63 4.36 13 13 13 
3.29 -0.22 0.43 100 100 100 
2.28 2.56 -0.34 34 34 34 
3.37 -0.16 -0.18 66 66 66 
3.57 2.63 0.89 154 154 154 
1.35 0.25 3.22 162 162 162 
0.62 -0.91 -0.27 25 25 25 
3.47 2.3 -0.33 44 44 44 
1.98 1.61 4.3 10 10 10 
3.71 0.19 0.49 80 80 80 
4.55 0.9 1.7 155 155 155 
2.27 -0.31 -0.3 59 59 59 
1.52 1.07 2.97 9 9 9 
1.4 0.16 1.69 32 32 32 
0.94 -1.82 1.12 41 41 41 
3.26 3.18 4.08 24 24 24 
0.19 -1.46 3.91 22 22 22 
2.23 -1.4 4.34 10 10 10 
2.67 0.32 -0.33 51 51 51 
3.35 2.67 0.78 75 75 75 
3.35 1.3 -0.35 28 28 28 
3.88 1.46 -0.39 28 28 28 
1.73 -1.74 0.02 6 6 6 
2.37 -1.1 0.64 22 22 22 
3.56 2.65 0.08 37 37 37 
0.44 -1.54 1.09 38 38 38 
0.34 0.92 2.79 7 7 7 
4.21 1.93 -0.12 11 11 11 
0.2 1.2 1.92 71 71 71 
2.76 2.4 4.27 31 31 31 
1.66 1.21 5.61 37 37 37 
3.29 2.69 2.89 27 27 27 
3 -0.74 3.71 184 184 184 
3.53 2.69 1.17 167 167 167 
4.73 1.21 0.5 46 46 46 
1.54 0.45 2.15 85 85 85 
4.16 0.6 -0.1 66 66 66 
1.42 -1.81 1.23 44 44 44 
0.81 -2.02 1.15 49 49 49 
1.41 -1.87 1.1 41 41 41 
1.08 -0.78 4.29 11 11 11 
2.66 -0.72 -0.19 58 58 58 
2.79 3.08 -0.35 27 27 27 
2.53 1.05 -0.34 51 51 51 
3.57 2.47 0.68 106 106 106 
1.54 1.59 -0.29 33 33 33 
2.77 -0.78 3.54 66 66 66 
3.51 -0.14 1.63 96 96 96 
1.43 0.64 3.16 58 58 58 
3.04 3.36 3.29 155 155 155 
2.92 -0.25 -0.33 51 51 51 
3.38 2.86 3.51 31 31 31 
2.57 3.54 1.49 121 121 121 
3.53 2.68 0.8 126 126 126 
1.51 0.5 3.53 34 34 34 
4.06 0.51 0.23 88 88 88 
3.03 -0.78 3.9 159 159 159 
4.51 0.95 0.13 56 56 56 
1.46 -1.87 1.52 42 42 42 
3.61 -0.02 0.94 71 71 71 
3.06 3.25 4.32 13 13 13 
2.22 3.09 5.63 10 10 10 
3.42 -0.21 1.41 75 75 75 
3.25 3.06 3.25 51 51 51 
3.62 -0.04 1.41 51 51 51 
3.28 3.01 4.84 6 6 6 
3 -0.74 3.43 54 54 54 
2.76 0.63 -0.3 58 58 58 
3.14 3.14 0.49 78 78 78 
2.57 -0.67 -0.34 43 43 43 
1.56 0.4 3.64 34 34 34 
3.12 -0.54 2.77 13 13 13 
4.56 1.32 0.4 83 83 83 
1.18 -0.84 -0.27 33 33 33 
4.2 0.58 1.69 139 139 139 
1.63 -1.69 3.18 20 20 20 
2.64 -0.4 -0.33 62 62 62 
3.7 2.14 0.8 10 10 10 
0.9 2.39 5.39 6 6 6 
2.79 3.38 4.49 15 15 15 
4.1 2.02 -0.06 35 35 35 
2.08 2.74 -0.35 28 28 28 
2.4 -1.18 1.19 21 21 21 
2.04 -1.38 0.5 17 17 17 
3.15 -0.58 3.1 22 22 22 
2.51 -0.91 1.02 25 25 25 
1.36 2.17 -0.32 29 29 29 
1.48 0.22 2.28 78 78 78 
3.18 3.11 3.54 47 47 47 
3.84 1.51 -0.39 33 33 33 
0.28 -1.4 3.47 36 36 36 
3.01 3.22 0.08 67 67 67 
1.22 -1.54 -0.3 10 10 10 
1.9 1.89 -0.32 47 47 47 
2.94 -0.66 3.16 24 24 24 
4.55 1.56 -0.4 70 70 70 
2.71 3.47 5.42 10 10 10 
3 3.27 1.22 155 155 155 
4.63 0.96 1.63 131 131 131 
1.3 0.51 -0.26 24 24 24 
0.79 -1.87 4.06 9 9 9 
4 1.04 -0.4 29 29 29 
2.45 -1.05 2.23 14 14 14 
2.82 2.51 4.45 5 5 5 
2.88 3.36 0.28 69 69 69 
3.99 2.07 0.66 44 44 44 
3.06 -0.7 3.7 194 194 194 
2.36 -0.9 -0.24 45 45 45 
2.66 2.1 4.24 4 4 4 
1.27 2.23 4.86 9 9 9 
2.52 -1.03 3.03 21 21 21 
2.94 3.48 3.97 20 20 20 
1.26 -2.03 1.46 32 32 32 
2.6 -0.94 2.9 45 45 45 
2.98 -0.6 1.07 74 74 74 
2.26 0.2 -0.3 41 41 41 
2.99 3.45 4.61 9 9 9 
1.42 0.76 2.22 26 26 26 
1.92 -0.34 3.14 41 41 41 
-0.08 -1.15 3.92 50 50 50 
4.39 1.31 -0.3 23 23 23 
0.97 0.47 4.37 11 11 11 
1.28 -1.97 2.44 13 13 13 
2.7 3.3 2.41 60 60 60 
2.21 3.25 -0.32 39 39 39 
2.66 3.41 0.83 75 75 75 
3.02 -0.52 3.31 30 30 30 
2.65 -0.81 1.13 65 65 65 
3.72 2.54 1.98 174 174 174 
3.76 2.54 2.81 53 53 53 
1.97 2.55 -0.32 27 27 27 
3.29 1.56 -0.34 33 33 33 
1.18 -0.34 2.76 9 9 9 
3.29 2.94 3.63 34 34 34 
2.11 2.36 -0.33 36 36 36 
3.36 2.86 0.37 50 50 50 
3.05 -0.59 1.52 81 81 81 
1.9 1.31 -0.31 42 42 42 
4.23 1.93 0.82 127 127 127 
1.16 1.96 3.6 15 15 15 
2.96 -0.57 1.43 83 83 83 
2.1 0.19 -0.3 42 42 42 
1.61 2.5 2.13 23 23 23 
2.01 -1.42 0.68 19 19 19 
2.39 3.06 -0.35 22 22 22 
3.41 2.56 0.46 71 71 71 
2.02 2.2 -0.32 43 43 43 
3.22 3.04 2.95 51 51 51 
2.16 -0.09 -0.31 43 43 43 
1.37 0.43 1.97 98 98 98 
0.41 -1.48 0.59 47 47 47 
2.47 3.24 -0.29 27 27 27 
1.78 1.03 -0.31 32 32 32 
0.96 -1.83 3.43 16 16 16 
0.83 -1.9 4.08 17 17 17 
1.73 -1.53 2.03 94 94 94 
0.68 -1.8 1.76 55 55 55 
4 2.12 0.08 30 30 30 
1.61 1.08 -0.28 33 33 33 
4.73 1.2 1.29 135 135 135 
2.64 0.69 -0.33 58 58 58 
3.78 2.38 0.36 62 62 62 
1.57 2.54 2.36 53 53 53 
4.38 1.76 1.85 200 200 200 
1.89 1.68 -0.29 40 40 40 
1.2 2.09 -0.32 26 26 26 
0.34 -1.37 0.2 6 6 6 
1.12 1.91 -0.29 26 26 26 
2.63 -0.83 0.76 13 13 13 
3.42 2.91 3.59 32 32 32 
3.57 2.76 3.51 19 19 19 
0.88 -2.07 2.8 13 13 13 
3.14 3.11 3.49 51 51 51 
2.58 3.5 3.9 23 23 23 
1.85 -1.43 2.22 21 21 21 
1.84 -1.65 2.27 27 27 27 
2.2 -1.16 2.35 20 20 20 
2.62 3.46 -0.29 21 21 21 
3.59 2.62 3.33 34 34 34 
1 -1.87 1.38 43 43 43 
1.65 1.22 5.69 56 56 56 
3.04 3.26 2.48 55 55 55 
1.18 -2.12 2.52 7 7 7 
3.72 2.1 0.56 38 38 38 
0.19 -1.31 1.76 62 62 62 
2.57 0.28 -0.32 50 50 50 
2.99 -0.58 1.36 83 83 83 
0.46 -1.45 3.29 18 18 18 
3.7 2.5 1.27 170 170 170 
4.65 1.35 1.17 133 133 133 
3.23 3.13 2.68 92 92 92 
1.91 -1.63 2.76 28 28 28 
2.05 2.84 5.55 14 14 14 
2.15 2.23 -0.33 38 38 38 
2.85 -0.47 -0.24 29 29 29 
2.88 3.38 1.28 152 152 152 
3.1 2.52 4.38 22 22 22 
4.12 2.04 0.76 112 112 112 
1.71 0.27 3.5 164 164 164 
3.48 2.85 3.37 31 31 31 
3.8 0.25 -0.21 95 95 95 
3.06 3.17 3.01 100 100 100 
1.68 2.13 -0.3 34 34 34 
2.71 3.5 3.43 60 60 60 
4.52 0.95 -0.17 53 53 53 
2.82 -0.75 1.21 76 76 76 
3.32 -0.31 1.49 49 49 49 
2.33 -1.17 2.41 9 9 9 
3.3 2.9 0.5 100 100 100 
4.61 1.32 0.73 114 114 114 
2.73 3.56 4.66 11 11 11 
4.73 1.2 0.77 100 100 100 
2.94 -0.5 0.98 49 49 49 
4.06 0.48 0.92 70 70 70 
1.58 0.75 1.5 23 23 23 
3 3.51 4.79 4 4 4 
1.16 1.94 5 5 5 5 
3.93 2.21 0.84 28 28 28 
4.63 1 1.66 140 140 140 
4.3 0.61 1.68 144 144 144 
1.17 0.26 -0.28 45 45 45 
2.61 -0.79 1.11 12 12 12 
4.59 1.48 0.61 118 118 118 
2.08 2.19 -0.32 46 46 46 
3 -0.64 3.72 82 82 82 
3.84 2.46 3.38 34 34 34 
2.97 -0.41 -0.04 28 28 28 
1.48 -0.09 -0.27 35 35 35 
3.18 -0.46 1.53 76 76 76 
3.67 0 1.86 177 177 177 
3.13 3.16 2.7 98 98 98 
3.02 -0.55 3.22 40 40 40 
3.56 0.07 0.31 106 106 106 
2.95 2.69 -0.34 24 24 24 
3.35 0.77 -0.36 52 52 52 
2.47 2.11 -0.34 35 35 35 
0.41 -1.59 0.82 14 14 14 
3.58 2.58 0.92 156 156 156 
4.06 1.8 0.72 123 123 123 
2.5 2.07 4.56 15 15 15 
1.1 1.39 -0.27 17 17 17 
0.86 -2.03 3.96 12 12 12 
3.58 2.32 0.65 33 33 33 
1.86 0.05 2.06 58 58 58 
3.81 2.36 1.46 192 192 192 
1.21 -1.94 0.7 4 4 4 
2.67 -0.79 1.43 89 89 89 
4.59 1.32 0.43 90 90 90 
1.85 -1.52 -0.26 1 1 1 
2.96 -0.44 0.45 34 34 34 
3.23 2.93 4.13 15 15 15 
3.03 3.27 2.26 40 40 40 
2.48 1.94 -0.33 39 39 39 
1.54 0.57 2.86 68 68 68 
3.24 -0.4 1.45 76 76 76 
4.33 0.74 0.4 57 57 57 
2.64 -0.92 2.71 30 30 30 
0.87 -2.03 1.98 26 26 26 
3.04 -0.55 0.87 72 72 72 
3.12 -0.51 4.04 98 98 98 
1.68 0.85 -0.3 32 32 32 
1.83 1.35 2.96 8 8 8 
0.31 -1.44 1.63 89 89 89 
1.19 -0.26 2.77 10 10 10 
2.77 -0.71 0.45 66 66 66 
0.31 -1.41 1.59 59 59 59 
3.06 -0.42 0.92 82 82 82 
2.28 3.05 -0.34 22 22 22 
3.3 2.89 -0.02 67 67 67 
1.27 -1.87 -0.25 16 16 16 
2.79 3.48 4.3 13 13 13 
1.69 -1.77 -0.1 5 5 5 
0.27 1.25 2.82 3 3 3 
4.35 0.74 1.22 82 82 82 
2.77 3.37 4.78 12 12 12 
1.82 1.92 5.74 10 10 10 
4.52 1.27 0.57 95 95 95 
2.64 3.27 1.78 178 178 178 
1.38 -1.9 1.03 44 44 44 
2.75 1.23 -0.32 51 51 51 
3.89 2.34 2.83 60 60 60 
2.65 3.49 1 104 104 104 
3.18 2.6 -0.25 69 69 69 
3.81 2.37 0.39 63 63 63 
2.92 -0.55 1.76 104 104 104 
2.58 -0.87 0.2 13 13 13 
1.27 -1.87 0.86 35 35 35 
3.7 0.96 -0.39 33 33 33 
1.46 -1.88 3.08 23 23 23 
1.73 -1.68 -0.3 6 6 6 
4.73 1.2 -0.02 41 41 41 
2.35 3.11 5.56 9 9 9 
1.01 0.28 2.75 10 10 10 
2.98 -0.81 3.68 76 76 76 
1.88 -0.02 3.68 11 11 11 
2.33 3.36 -0.32 44 44 44 
1.33 2.14 5.01 8 8 8 
2.44 -0.87 0.6 20 20 20 
4.65 1.41 0.82 102 102 102 
0.82 -1.96 1.08 53 53 53 
1.84 -0.27 2.96 15 15 15 
3.94 2.29 3.4 48 48 48 
1.12 -1.97 4.09 11 11 11 
3.47 -0.09 0.81 71 71 71 
2.75 -0.89 0.59 5 5 5 
3.93 0.34 1.2 61 61 61 
2.95 -0.54 0.24 29 29 29 
0.75 0.32 2.77 13 13 13 
4.73 1.2 -0.2 39 39 39 
1.3 0.8 4.32 9 9 9 
1.88 0.4 -0.28 50 50 50 
2.37 -0.75 -0.31 35 35 35 
1.89 1.46 4.37 10 10 10 
2.56 1.78 -0.34 41 41 41 
1.69 -1.73 0.82 7 7 7 
2.31 2.36 5.68 4 4 4 
1.64 -1.96 0.79 3 3 3 
2.46 1.03 -0.32 56 56 56 
0.49 -1.6 3.35 13 13 13 
2.96 -0.59 1.03 78 78 78 
2.87 -0.57 1.1 87 87 87 
0.81 -1.93 1.08 50 50 50 
1.07 0.09 2.94 9 9 9 
1.73 1.17 4.43 13 13 13 
0.49 -1.67 3.86 20 20 20 
2.65 3.43 0.39 58 58 58 
3.87 1.86 -0.34 58 58 58 
4.63 1.47 0.18 73 73 73 
0.34 -1.4 0 71 71 71 
4.73 1.19 1.71 174 174 174 
2.85 3.42 1 134 134 134 
3.04 3.53 5.21 26 26 26 
3.65 2.31 3.14 33 33 33 
2.61 -0.95 1.39 28 28 28 
3.86 0.19 1.81 59 59 59 
1.41 -1.83 1.38 44 44 44 
0.94 -1.94 1.17 41 41 41 
2.86 -0.57 0.9 87 87 87 
2.8 -0.61 0.45 31 31 31 
1.74 -1.56 2.15 145 145 145 
2.67 -0.84 0.62 6 6 6 
-0.05 -1.07 3.04 23 23 23 
3.36 2.85 1.38 189 189 189 
4.01 0.45 0.89 60 60 60 
2.16 2.07 2.86 18 18 18 
2.91 3.31 0.42 75 75 75 
2.09 1.54 -0.32 60 60 60 
2.25 2.21 -0.31 50 50 50 
2.23 1.02 -0.33 47 47 47 
4.19 2 1.58 179 179 179 
1.18 -1.6 5.82 41 41 41 
2.17 -0.57 -0.34 32 32 32 
2.28 1.7 4.39 16 16 16 
3.52 0.73 -0.34 41 41 41 
2.95 2.2 -0.34 30 30 30 
4.55 1.15 -0.31 27 27 27 
2.58 3.48 2.94 255 255 255 
4.58 1.35 0.72 106 106 106 
2.51 -1.03 3.42 37 37 37 
3.17 -0.43 1.6 66 66 66 
2.11 -0.19 -0.31 36 36 36 
1.01 -1.96 3.5 16 16 16 
1.43 2.4 4.46 8 8 8 
2 -1.47 0.61 18 18 18 
3.32 0.47 -0.33 51 51 51 
3.52 -0.06 1.15 72 72 72 
3.31 -0.31 1.45 67 67 67 
3.14 3.24 4.11 11 11 11 
0.56 2.12 5.2 9 9 9 
4.73 1.19 1.26 127 127 127 
0.98 -1.81 3.4 15 15 15 
1.38 -1.84 0.61 34 34 34 
3.91 1.72 -0.4 27 27 27 
2.4 3.43 0.8 77 77 77 
1.18 0.91 -0.27 32 32 32 
1.8 -1.12 -0.32 13 13 13 
3.77 0.71 -0.35 46 46 46 
3.76 2.55 3.5 26 26 26 
2.88 3.37 5.26 70 70 70 
3.89 0.26 1.26 58 58 58 
3.29 2.99 1.3 164 164 164 
2.68 -0.87 3.39 40 40 40 
0.79 -1.91 2.02 53 53 53 
3.72 0.14 0.58 70 70 70 
3.17 3.15 3.03 74 74 74 
2.22 0.82 -0.29 46 46 46 
2.95 -0.48 0.4 30 30 30 
1.51 0.17 2.19 36 36 36 
4.53 1.28 1.63 133 133 133 
0.7 -0.95 -0.28 19 19 19 
1.75 1.81 5.75 9 9 9 
2.58 3.47 3.98 48 48 48 
3.05 3.24 2.25 29 29 29 
2.47 0.66 -0.32 46 46 46 
3.67 0.12 0.83 74 74 74 
3.89 2.36 1.72 187 187 187 
3.08 3.21 1.47 176 176 176 
3.47 2.81 3.34 35 35 35 
1.06 0.25 -0.27 59 59 59 
2.91 3.39 1.45 180 180 180 
3.56 0.02 -0.23 88 88 88 
3.13 3.2 1.92 209 209 209 
2.99 3.3 0.21 70 70 70 
0.93 -1.83 0.64 34 34 34 
1.4 -0.2 -0.27 35 35 35 
3.39 -0.29 2.44 162 162 162 
3.71 0.65 -0.38 56 56 56 
2.94 3.31 -0.22 53 53 53 
2.84 0.02 -0.33 68 68 68 
2.87 -0.71 3.52 83 83 83 
3.44 2.42 3.27 19 19 19 
1.62 -1.87 -0.06 3 3 3 
4.73 1.19 0.83 114 114 114 
4.29 1.84 1.04 169 169 169 
3.67 0.05 1.17 67 67 67 
1.58 -1.71 2.53 97 97 97 
1.7 -0.52 2.95 26 26 26 
2.07 1.05 -0.3 43 43 43 
4.4 1.7 1.84 205 205 205 
1.62 1.64 -0.3 30 30 30 
3 2.75 -0.32 18 18 18 
1.83 2.43 2.82 15 15 15 
0.76 -2.06 3.89 9 9 9 
2.68 0.57 -0.32 50 50 50 
2.21 -1.26 0.56 21 21 21 
3.61 1.34 -0.36 30 30 30 
3.18 -0.4 1.15 74 74 74 
1.57 -1.7 0.8 13 13 13 
2.62 3.48 1.78 175 175 175 
2.58 -0.91 0.88 7 7 7 
2.72 -0.81 1.31 83 83 83 
3.82 0.17 0.92 54 54 54 
2.8 -0.87 3.28 40 40 40 
1.8 -1.53 1.18 17 17 17 
1.61 1.05 -0.29 32 32 32 
3.58 2.52 3.22 36 36 36 
1.14 -0.82 4.59 11 11 11 
3.14 -0.59 3.12 15 15 15 
1.17 -2.05 0.88 31 31 31 
0.67 -1.77 1.26 53 53 53 
2.86 2.58 -0.31 26 26 26 
0.75 -1.9 3.38 7 7 7 
3.73 2.48 1.1 157 157 157 
3.66 1.02 -0.38 29 29 29 
4.73 1.19 0.51 46 46 46 
3.4 2.93 2.84 56 56 56 
3.53 2.73 1.92 192 192 192 
2.75 -0.74 -0.29 50 50 50 
2.68 -0.93 1.01 5 5 5 
1.02 -1.84 4.44 22 22 22 
3 -0.5 1.57 89 89 89 
0.67 -1.71 -0.04 46 46 46 
1.89 -1.41 2.65 18 18 18 
3.3 2.95 4.53 13 13 13 
3.49 2.29 3.21 30 30 30 
2.7 -0.85 0.46 7 7 7 
3.94 1.58 -0.37 28 28 28 
2.71 -0.89 1.58 8 8 8 
