ply
format ascii 1.0
comment Author: CloudCompare (TELECOM PARISTECH/EDF R&D)
obj_info Generated by CloudCompare!
element vertex 1874
property float x
property float y
property float z
property uchar red
property uchar green
property uchar blue
end_header
1.99 -1.49 1.72 4 4 4 
3.78 0.16 0.73 64 64 64 
2.4 -1.1 2.28 15 15 15 
3.73 2.54 1.77 197 197 197 
4.49 0.84 0.7 103 103 103 
3.07 -0.38 0.57 68 68 68 
4.65 1.38 0.35 75 75 75 
2.91 2.61 4.41 6 6 6 
4.37 0.75 1.25 84 84 84 
3.46 2.92 3.67 20 20 20 
2.5 -0.64 -0.32 39 39 39 
1.92 1.45 2.96 11 11 11 
3.3 3.01 3.49 37 37 37 
3.45 -0.28 3 19 19 19 
3.14 3.05 1.04 144 144 144 
3.99 1.19 -0.4 27 27 27 
2.94 -0.87 2.91 26 26 26 
1.52 -0.37 -0.28 35 35 35 
0.55 -1.6 -0.03 50 50 50 
3.2 -0.48 2.72 114 114 114 
4.21 1.7 -0.22 49 49 49 
4.71 1.03 1.34 180 180 180 
1.56 0.26 1.49 22 22 22 
4.48 1.66 1.22 146 146 146 
3.35 2.74 4.39 7 7 7 
1.48 0.98 4.4 17 17 17 
1.53 0.42 5.54 8 8 8 
1.73 -1.39 -0.27 9 9 9 
1.32 -0.77 -0.3 29 29 29 
3.18 3.13 1.22 153 153 153 
2.95 2.35 4.38 11 11 11 
4.52 1.61 0.2 62 62 62 
0.81 -2.03 2.02 51 51 51 
1.87 1.13 -0.32 36 36 36 
3.21 3.16 3.35 84 84 84 
2.57 2.24 4.44 5 5 5 
2.02 -1.49 3.1 16 16 16 
4.63 1.2 0.23 41 41 41 
0.87 -2.08 2.49 7 7 7 
4.16 1.71 -0.17 52 52 52 
3.63 0.01 1.72 187 187 187 
1.02 -1.89 0.98 65 65 65 
2.55 -0.9 0.3 8 8 8 
1.42 0.2 3.67 142 142 142 
0.55 1.79 5.47 2 2 2 
2.48 2.02 4.36 25 25 25 
3.22 -0.37 1.1 77 77 77 
3.06 -0.51 3.75 51 51 51 
1.52 2.21 3.79 255 255 255 
3.15 2.66 4.39 17 17 17 
3.12 3.18 3.06 111 111 111 
0.8 0.63 2.9 32 32 32 
2.98 -0.16 -0.34 52 52 52 
2.44 3.45 1.12 86 86 86 
2.57 2.69 -0.32 28 28 28 
0.74 0.83 -0.27 23 23 23 
4.17 1.96 0.02 35 35 35 
1.58 -1.73 2.54 138 138 138 
4.72 1.08 1.31 132 132 132 
3.43 -0.25 2.57 92 92 92 
2.7 3.52 3.07 176 176 176 
4.21 0.68 0.06 57 57 57 
3.08 0.41 -0.33 61 61 61 
3.59 0.01 1.2 61 61 61 
2.64 -0.87 2.1 96 96 96 
3.33 2.95 3.04 37 37 37 
3.04 -0.65 2.71 10 10 10 
1.37 0.56 1.97 57 57 57 
1.4 -1.81 0.71 34 34 34 
3.48 2.84 3.22 46 46 46 
3.67 0.14 0.24 108 108 108 
3.17 3.21 3.05 114 114 114 
4.59 0.94 0.89 122 122 122 
2.83 2.94 -0.35 23 23 23 
3.91 2.3 1.98 201 201 201 
4.58 1.57 1.05 143 143 143 
2.92 2.45 4.24 18 18 18 
2.8 -0.35 -0.35 44 44 44 
1.22 -2.14 3.93 16 16 16 
2.82 -0.7 -0.01 54 54 54 
1.46 1.59 5.66 7 7 7 
4.55 1.45 -0.34 16 16 16 
3.02 1.19 -0.36 43 43 43 
2.81 -0.67 1.29 82 82 82 
3.79 0.17 0.82 67 67 67 
2.94 -0.6 3.6 253 253 253 
0.93 -1.82 0.73 35 35 35 
2.6 -0.84 1 2 2 2 
2.63 3.32 1.78 142 142 142 
3.22 3.1 3.41 57 57 57 
3.28 -0.21 0.45 93 93 93 
4.48 1.66 -0.25 36 36 36 
0.53 -1.57 -0.06 48 48 48 
4.58 1.19 1.35 127 127 127 
1.47 -1.86 2.87 104 104 104 
0.26 -1.47 3.86 22 22 22 
4.45 1.23 -0.3 28 28 28 
2.87 -0.86 3.64 50 50 50 
3.29 2.98 4.96 7 7 7 
3.01 0.47 -0.32 95 95 95 
4.04 0.41 1.64 69 69 69 
3.6 0.08 -0.31 79 79 79 
3.93 1.97 -0.08 37 37 37 
2.88 3.42 1.65 201 201 201 
1.86 -1.54 1.49 22 22 22 
2.35 -1.03 -0.31 7 7 7 
2.92 -0.64 0.59 59 59 59 
2.1 2.13 5.52 7 7 7 
2.8 3.41 4.29 11 11 11 
1.82 2.41 2.83 14 14 14 
2.75 -0.94 3.75 30 30 30 
1.61 -1.91 1.48 4 4 4 
1.69 -0.74 2.74 9 9 9 
3.49 2.73 1.2 174 174 174 
4.11 1.78 0.67 76 76 76 
2.34 -1.18 0.52 19 19 19 
2.2 -1.42 4.58 10 10 10 
3.94 1.06 -0.37 67 67 67 
4.59 1.21 0.89 130 130 130 
4.23 1.78 0.71 54 54 54 
0.8 0.41 2.94 11 11 11 
3.02 -0.38 -0.04 36 36 36 
3.68 2.55 1.71 206 206 206 
1.34 -1.92 1.16 20 20 20 
3.73 2.45 0.28 34 34 34 
2.09 -1.16 2.74 5 5 5 
3.51 -0.02 1.03 79 79 79 
1.2 -2.06 1.2 40 40 40 
4.17 1.75 0.11 62 62 62 
0.99 -1.89 0.76 37 37 37 
2.8 -0.69 1.37 85 85 85 
4.15 0.45 1.83 115 115 115 
1.53 -0.59 5.7 12 12 12 
3.58 2.33 0.49 21 21 21 
1.62 -1.2 -0.29 21 21 21 
1.41 1.72 5.71 8 8 8 
3.36 -0.15 1.26 81 81 81 
3.49 2.44 0.51 71 71 71 
3.11 -0.79 3.98 103 103 103 
2.3 0.78 -0.31 43 43 43 
3.3 2.94 1.1 165 165 165 
1.88 -1.47 0.76 18 18 18 
3.36 2.84 1.34 186 186 186 
4.27 0.72 0.25 61 61 61 
4.31 0.64 1.53 80 80 80 
1.27 -0.25 2.76 14 14 14 
4.25 1.87 0.06 32 32 32 
1.81 0.63 1.35 25 25 25 
2.69 -0.92 1.44 4 4 4 
4.54 1.6 1.35 169 169 169 
1.13 -2.03 1 30 30 30 
3.58 2.23 0.06 44 44 44 
1.15 -2.11 1.94 34 34 34 
3.73 2.51 3.61 24 24 24 
3.78 2.41 1.02 159 159 159 
4.01 1.14 -0.37 31 31 31 
1.21 -2.07 0.56 25 25 25 
1.25 -2.05 0.79 17 17 17 
1.39 2.28 4.83 9 9 9 
0.52 -1.66 2.23 7 7 7 
3.7 2.52 3.41 28 28 28 
4.51 0.84 1.69 155 155 155 
4.08 0.48 0.27 83 83 83 
4.22 0.61 1.24 78 78 78 
0.66 -1.68 -0.3 21 21 21 
1.82 1.17 4.4 8 8 8 
1.33 -1.39 -0.3 21 21 21 
4.49 0.91 0.54 81 81 81 
2.66 2.15 4.36 26 26 26 
1.49 0.15 2.21 34 34 34 
1.55 0.58 2.63 66 66 66 
3.04 3.27 2.47 49 49 49 
1.22 -2.09 3 7 7 7 
3.33 2.95 2.65 41 41 41 
3.13 1.7 -0.35 36 36 36 
2.9 3.32 0.03 64 64 64 
2.12 -1.34 0.65 20 20 20 
4.39 0.74 1.38 77 77 77 
4.15 0.61 -0.36 55 55 55 
4.26 0.64 1.29 70 70 70 
3.21 -0.13 -0.35 59 59 59 
4.5 1.26 0.72 104 104 104 
1.84 -1.68 2.5 43 43 43 
4.71 1.38 1.41 136 136 136 
4.44 1.69 1.06 139 139 139 
3.22 3.08 1.66 202 202 202 
2.92 3.35 3.57 52 52 52 
2.99 -0.33 -0.23 26 26 26 
1.24 -0.86 5.54 8 8 8 
2.02 -1.35 0.64 18 18 18 
1.73 -1.56 2.59 33 33 33 
2.88 3.4 0.79 144 144 144 
3.07 3.22 3.24 129 129 129 
0.29 1.24 -0.26 15 15 15 
4.47 1.21 1.66 38 38 38 
3.11 1.9 -0.35 25 25 25 
1.18 -2 1.23 34 34 34 
1.34 -1.87 0.82 92 92 92 
4.61 1.1 1.69 28 28 28 
0.98 -1.69 -0.17 19 19 19 
2.72 -0.95 1.07 7 7 7 
4.57 0.92 1.35 130 130 130 
2.44 3.42 0.16 41 41 41 
0.84 1.68 -0.27 34 34 34 
1.09 1.23 -0.3 33 33 33 
4.21 1.97 0.29 74 74 74 
1.55 -1.63 2.91 49 49 49 
1.53 -0.56 5.68 14 14 14 
1.45 0.98 2.96 8 8 8 
4.22 0.65 1.22 72 72 72 
3.16 2.71 -0.07 42 42 42 
1.75 -0.84 2.74 7 7 7 
1.46 -1.73 0.68 5 5 5 
1.65 2.24 -0.31 33 33 33 
0.79 -1.73 -0.24 14 14 14 
0.97 -1.89 0.92 42 42 42 
2.24 1.73 -0.33 47 47 47 
1.48 0.27 -0.29 39 39 39 
2.29 -1.07 0.03 22 22 22 
2.44 -1.11 1.4 18 18 18 
2.71 -0.16 -0.33 50 50 50 
4.56 1.06 -0.33 45 45 45 
3.26 -0.43 3.03 13 13 13 
1.08 -1.94 2.73 6 6 6 
0.75 1.54 -0.29 27 27 27 
1.15 -2.07 1.32 31 31 31 
3.23 3.02 2.59 40 40 40 
3.6 2.63 3.12 41 41 41 
3.16 3.06 -0.19 58 58 58 
2.2 1.57 2.97 14 14 14 
2.13 1.06 -0.3 46 46 46 
3.78 0.18 0.75 67 67 67 
2.26 -1.13 2.65 8 8 8 
3.51 -0.01 -0.27 101 101 101 
1.91 1.26 4.36 6 6 6 
3.78 2.48 2.79 56 56 56 
1.68 -1.39 -0.31 22 22 22 
0.87 -1.98 1.3 112 112 112 
2.91 -0.57 1.41 101 101 101 
3.04 3.26 1.49 171 171 171 
2.92 -0.67 3.54 80 80 80 
3.73 2.47 1.43 181 181 181 
2.11 -0.45 -0.33 31 31 31 
3.27 -0.43 2.89 17 17 17 
1.76 2.3 2.9 16 16 16 
3.42 -0.31 2.95 28 28 28 
2.35 0.55 -0.3 44 44 44 
2.08 0.96 -0.32 45 45 45 
1.38 0.5 2.45 22 22 22 
4.61 1.53 0.55 95 95 95 
2.8 -0.49 -0.31 28 28 28 
2.95 3.3 -0.28 58 58 58 
3.02 3.33 2.28 42 42 42 
1.5 0.8 2.84 27 27 27 
2.5 -0.95 -0.18 7 7 7 
3.29 3 1.53 195 195 195 
2.24 2.21 5.58 9 9 9 
2.58 -0.92 -0.24 9 9 9 
1.37 -1.89 0.97 38 38 38 
3.82 1.99 -0.26 49 49 49 
3.12 3.1 0.94 118 118 118 
3.11 -0.44 0.56 72 72 72 
1.83 -1.7 2.75 33 33 33 
3.27 2.9 2.77 64 64 64 
1.46 1.28 -0.28 32 32 32 
2.44 3.13 5.49 19 19 19 
2.33 2.8 -0.35 23 23 23 
3.79 2.45 1.68 203 203 203 
1.95 -1.02 3.25 6 6 6 
3.53 2.61 3.43 21 21 21 
3.42 -0.25 2.56 91 91 91 
2.26 2.75 -0.36 29 29 29 
3.88 1.11 -0.39 28 28 28 
2.62 0.64 -0.29 52 52 52 
3.62 2.65 2.95 31 31 31 
1.34 -1.91 1.54 40 40 40 
0.94 -1.91 -0.13 32 32 32 
3.03 -0.42 0.51 69 69 69 
2.96 2.66 4.45 9 9 9 
1.39 -1.01 -0.27 45 45 45 
2.64 -0.94 1.59 28 28 28 
2.01 -0.77 -0.32 38 38 38 
1.48 0.34 3.64 176 176 176 
3.38 2.79 -0.1 59 59 59 
3.88 0.3 0.28 103 103 103 
3.04 -0.53 1.2 76 76 76 
3.51 2.47 0.52 96 96 96 
2.22 2.24 5.6 6 6 6 
3.16 -0.46 2.1 65 65 65 
2.98 3.31 0.57 80 80 80 
3.8 0.25 -0.06 94 94 94 
1.7 -1.67 1.67 13 13 13 
2.73 -0.85 3.64 56 56 56 
3.84 1.7 1.81 176 176 176 
3.98 1.89 0.8 13 13 13 
3.26 2.91 4.48 14 14 14 
3.15 -0.18 -0.23 31 31 31 
2.12 2.95 5.43 14 14 14 
2.23 2.35 -0.32 41 41 41 
2.96 -0.53 2.39 7 7 7 
0.34 1.83 5.45 5 5 5 
2.84 -0.56 0.06 34 34 34 
3.91 2.34 3.06 80 80 80 
4.03 0.88 -0.34 39 39 39 
3.29 -0.37 2.24 80 80 80 
1.77 -1.53 0.89 15 15 15 
4.27 1.88 0.53 45 45 45 
1.86 -1.66 1.13 20 20 20 
3.11 -0.49 3.19 37 37 37 
3.57 2.71 3.11 43 43 43 
1.55 1 2.55 22 22 22 
3.12 -0.36 1.15 78 78 78 
3.69 2.65 3.61 26 26 26 
2.56 1.22 -0.31 42 42 42 
2 -1.11 -0.29 11 11 11 
1.6 -1.71 2.97 45 45 45 
3.31 -0.27 1.18 78 78 78 
3.01 2.93 0.54 55 55 55 
3.19 3.03 -0.26 41 41 41 
3.7 0.2 0.33 98 98 98 
1.47 -1.77 -0.07 4 4 4 
3 -0.68 3.6 107 107 107 
1.5 0.19 1.97 97 97 97 
1.03 -1.16 -0.28 20 20 20 
2.4 1.94 -0.33 37 37 37 
1.5 0.27 3.16 180 180 180 
1.94 -1.48 0.51 17 17 17 
2.42 0.18 -0.3 43 43 43 
1.42 -1.94 1.16 48 48 48 
4 2.03 0.52 43 43 43 
2.9 3.41 1.73 207 207 207 
1.76 -0.2 -0.28 35 35 35 
2 -1.43 0.76 19 19 19 
2.6 1.99 3.47 11 11 11 
3.5 2.71 1.88 131 131 131 
1.65 1.58 -0.3 40 40 40 
2.29 -1.03 0.11 20 20 20 
3.23 -0.52 3.73 64 64 64 
0.35 -1.42 3.98 35 35 35 
1.25 0.55 -0.26 24 24 24 
3.1 3.25 2.44 45 45 45 
3.05 2.76 -0.3 53 53 53 
3.24 3.03 2.21 215 215 215 
2.84 2.39 4.35 26 26 26 
1.02 -1.89 0.75 31 31 31 
3.37 2.77 3.5 20 20 20 
3.24 3.06 1.88 240 240 240 
1.53 0.94 2.61 20 20 20 
2.98 2.91 0.07 60 60 60 
1.33 -1.88 0.81 110 110 110 
3.33 2.74 2.87 42 42 42 
1.26 -1.97 -0.06 26 26 26 
2.2 2.38 -0.35 37 37 37 
2.69 3.41 2.17 39 39 39 
0.92 -1.88 4.03 16 16 16 
1.98 -0.6 -0.32 34 34 34 
2.7 -0.86 1.01 9 9 9 
2.91 -0.69 3.47 125 125 125 
3.37 2.79 -0.23 29 29 29 
4.36 1.79 0.08 34 34 34 
1.41 1.64 -0.31 27 27 27 
3.95 0.29 1.09 60 60 60 
3.07 -0.52 3.56 107 107 107 
2.95 3.34 1.15 158 158 158 
4.55 1.24 1.06 132 132 132 
2.11 0.13 -0.32 49 49 49 
2.23 -1.34 3.98 11 11 11 
2.88 3.45 1.45 105 105 105 
2.33 1.4 -0.31 50 50 50 
-0.19 0.79 2.98 6 6 6 
2.52 3.48 1.61 177 177 177 
2.37 2.31 -0.33 40 40 40 
0.21 1.18 2.63 6 6 6 
3.49 2.74 3.67 27 27 27 
0.83 -1.12 -0.28 22 22 22 
2.65 -0.84 2.69 27 27 27 
1.58 -0.76 4.56 10 10 10 
2.43 1.83 4.36 18 18 18 
4.42 1.68 -0.35 34 34 34 
1.49 -1.83 0.56 5 5 5 
3.85 2.45 3.51 30 30 30 
1.05 -2 4.15 25 25 25 
3.29 -0.57 2.96 25 25 25 
1.85 -1.46 3.01 28 28 28 
1.39 -1.97 1.2 30 30 30 
2.68 1.68 -0.35 41 41 41 
3.86 0.69 -0.34 41 41 41 
3.91 2.32 2.03 208 208 208 
2.91 2.75 -0.33 29 29 29 
2.59 -0.79 -0.12 4 4 4 
2.39 -0.98 0.57 23 23 23 
0.84 -1.34 0.72 30 30 30 
1.58 -1.28 -0.33 21 21 21 
3.66 2.57 1.46 186 186 186 
0.83 -1.92 2.92 11 11 11 
2.19 3.17 0.7 80 80 80 
4.13 1.73 0.4 57 57 57 
1.03 0.66 3.18 15 15 15 
4.36 1.2 -0.36 38 38 38 
0.45 -1.54 1.05 46 46 46 
3.07 3.23 2.64 69 69 69 
2.29 -1.25 0.96 23 23 23 
2.92 -0.83 3.46 48 48 48 
1.55 0.76 1.53 28 28 28 
3.09 2.99 -0.35 29 29 29 
4.24 0.62 0.46 54 54 54 
3.43 0.91 -0.33 50 50 50 
2.9 3.35 -0.12 61 61 61 
4.51 1.25 1.15 128 128 128 
0.78 -2.01 2.2 4 4 4 
3.68 2.34 3.16 52 52 52 
2.81 -0.77 1.34 80 80 80 
3.96 0.98 -0.34 39 39 39 
1.08 1.06 -0.26 41 41 41 
3.87 2.35 2.9 68 68 68 
4.16 0.59 -0.11 65 65 65 
4.13 2.03 0.28 46 46 46 
1.44 -0.14 3.69 22 22 22 
3.28 -0.37 5.48 25 25 25 
2.3 3.2 5.49 8 8 8 
2.32 1.79 2.74 19 19 19 
1.15 -0.14 2.76 24 24 24 
2.87 3.43 0.57 99 99 99 
4.22 0.75 -0.36 34 34 34 
3.08 3.13 1.24 158 158 158 
1 -1.87 4.36 28 28 28 
2.61 3.3 1.02 134 134 134 
1.26 -1.96 -0.04 23 23 23 
1.7 1.22 3.19 6 6 6 
3.32 -0.4 2.89 29 29 29 
3.28 3.01 4.72 8 8 8 
2 -0.04 3.19 7 7 7 
0.67 -1.8 1.86 56 56 56 
3.17 -0.43 3.4 30 30 30 
2.15 -1.4 3.5 14 14 14 
4.56 1.51 0.24 67 67 67 
1.81 -0.57 4.53 19 19 19 
1.75 0.02 3.67 46 46 46 
3.49 0 0.32 110 110 110 
3.64 2.11 -0.02 21 21 21 
2.93 3.3 0.78 126 126 126 
2.66 3.29 0.93 87 87 87 
0.96 0.51 2.99 13 13 13 
1.77 -1.73 2.64 58 58 58 
3.78 2.44 3.13 56 56 56 
2.06 -1.39 0.71 19 19 19 
2.56 0.35 -0.31 48 48 48 
2.82 3.44 -0.2 40 40 40 
1.11 -1.53 -0.23 36 36 36 
2.9 -0.67 3.36 25 25 25 
3.21 -0.29 0.35 51 51 51 
4.41 0.83 0.59 75 75 75 
1.89 -1.6 2.6 31 31 31 
1.98 -0.66 -0.31 35 35 35 
2.21 -0.09 -0.32 52 52 52 
2.56 0.07 -0.3 44 44 44 
0.97 -1.94 0.81 31 31 31 
1.55 2.24 3.63 116 116 116 
3.19 2.76 4.4 20 20 20 
3.34 2.86 4.1 29 29 29 
0.66 1.56 1.02 92 92 92 
1.99 0.85 -0.32 39 39 39 
1.73 -0.6 4.57 12 12 12 
1.26 -1.97 0.32 34 34 34 
4.36 1.56 0.75 106 106 106 
1.64 2.53 2.6 21 21 21 
0.84 -2 0.05 36 36 36 
2.69 3.48 5.46 18 18 18 
3.43 2.8 3.31 40 40 40 
3.85 0.24 1.36 63 63 63 
4.22 0.66 0.31 61 61 61 
3.55 0.02 1.04 77 77 77 
3.7 2.45 2.96 43 43 43 
1.2 -2.12 2.6 4 4 4 
3.43 -0.09 0.95 73 73 73 
1.81 0.77 5.47 34 34 34 
2.03 2.37 -0.33 31 31 31 
0.73 0.21 2.97 13 13 13 
3 3.25 0.59 85 85 85 
0.81 0.41 2.91 40 40 40 
2.21 -1.04 -0.32 8 8 8 
2.66 -0.56 -0.06 40 40 40 
1.5 0.28 3.66 29 29 29 
2.78 -0.92 1.51 8 8 8 
3.46 0.33 -0.37 54 54 54 
1.98 1.3 -0.3 37 37 37 
2.78 2.99 -0.36 26 26 26 
1.33 1.76 -0.31 28 28 28 
0.85 0.31 2.77 9 9 9 
1.22 -2.06 2.35 4 4 4 
1.55 -1.01 -0.32 31 31 31 
2.77 1.93 -0.34 34 34 34 
2.54 2.07 -0.33 35 35 35 
4.4 0.77 0.96 78 78 78 
1.53 -1.33 -0.32 20 20 20 
4.45 0.9 0.29 57 57 57 
3.68 2.63 3.64 29 29 29 
0.27 1.16 2.3 20 20 20 
2.31 -0.65 -0.32 39 39 39 
2.77 -0.7 -0.35 55 55 55 
4 2.16 0.58 32 32 32 
0.99 1.42 -0.29 30 30 30 
2.22 0.78 -0.28 41 41 41 
0.12 -1.28 3.17 18 18 18 
1.84 1.16 -0.3 31 31 31 
1.03 -1.88 1.19 26 26 26 
1.26 -2.07 1.48 30 30 30 
3.64 0.03 0.99 70 70 70 
1.97 1.26 -0.31 37 37 37 
2.34 -1.16 2.51 7 7 7 
1.93 -1.54 2.13 143 143 143 
1.96 -0.07 2.99 18 18 18 
3.34 2.91 2.78 61 61 61 
4.67 1.44 0.29 73 73 73 
0.93 -1.97 1.5 57 57 57 
2.53 3.48 2.19 28 28 28 
1.4 -0.83 4.33 25 25 25 
2.89 -0.77 2.91 27 27 27 
3.32 -0.4 2.8 18 18 18 
3.14 -0.46 1.18 73 73 73 
1.35 -1.95 0.59 29 29 29 
1.09 -1.62 5.81 92 92 92 
3.2 -0.36 1.11 77 77 77 
1.51 0.65 1.94 47 47 47 
1.47 0.31 3.19 170 170 170 
1.59 -0.84 4.51 11 11 11 
2.99 3.28 1.66 207 207 207 
3.07 -0.47 0.53 70 70 70 
3.13 3.16 1.55 200 200 200 
3.12 3.25 5.47 6 6 6 
2.19 -0.17 4.39 21 21 21 
1.64 0.01 5.72 11 11 11 
2.19 -1.41 1.08 16 16 16 
0.97 1.73 -0.3 30 30 30 
2.95 3.27 0.3 68 68 68 
1.8 2.33 2.99 8 8 8 
2.78 -0.7 -0.3 46 46 46 
1.75 -1.74 0.73 9 9 9 
1.18 -2.09 2.21 4 4 4 
3.36 2.6 0.44 53 53 53 
0.79 0.15 2.97 13 13 13 
4.17 0.54 1.73 164 164 164 
4.73 1.15 1.74 167 167 167 
1.29 -1.91 1.24 69 69 69 
4.21 1.63 0.36 40 40 40 
3.07 2.57 4.21 19 19 19 
1.02 0.36 -0.27 25 25 25 
1 0.29 2.75 64 64 64 
1.23 0.39 -0.27 31 31 31 
2.68 3.28 1.14 132 132 132 
2.55 -0.95 2.62 25 25 25 
2.77 3.36 5.44 24 24 24 
3.26 2.92 -0.08 89 89 89 
3.92 1.9 0.08 62 62 62 
1.82 -1.47 2.15 134 134 134 
1.67 -1.64 2.4 57 57 57 
3.31 2.96 3.52 32 32 32 
2.63 2.23 4.6 6 6 6 
3.05 3.21 3.44 82 82 82 
4.25 1.8 0.31 45 45 45 
2.48 2.63 -0.35 36 36 36 
1.42 -0.44 -0.28 36 36 36 
3.22 3.12 3.23 66 66 66 
3.85 2.39 1.61 199 199 199 
1.41 -1.95 1.16 33 33 33 
2.33 -1.24 1.28 22 22 22 
2.85 -0.91 3.68 35 35 35 
3.05 -0.44 0.88 80 80 80 
3.37 2.87 0.66 44 44 44 
3.46 2.8 2.89 41 41 41 
1.71 -1.61 2.82 29 29 29 
4.07 0.47 1 60 60 60 
2 2.5 -0.35 30 30 30 
4.17 1.96 0.64 49 49 49 
1.4 2.44 4.55 7 7 7 
2.51 -1.04 1.13 26 26 26 
1.67 -1.73 1.17 11 11 11 
1.46 2.38 -0.32 31 31 31 
1.52 2.22 3.7 150 150 150 
4.63 1.31 0.38 79 79 79 
3.65 2.58 1.69 209 209 209 
1.28 -1.97 0.64 96 96 96 
2.5 3.47 1.05 122 122 122 
3.11 3.27 3.18 121 121 121 
3.18 3.08 1.42 178 178 178 
0.99 -1.8 1.03 132 132 132 
1.57 0.06 3.65 144 144 144 
3.17 -0.43 1.81 58 58 58 
3.21 3.01 0.29 79 79 79 
3.32 1.1 -0.32 40 40 40 
0.24 -1.44 3.3 47 47 47 
2.47 1.36 -0.35 43 43 43 
3.37 1.11 -0.38 43 43 43 
3.64 2.61 2.76 52 52 52 
1.46 -1.8 1.86 7 7 7 
1.74 0.09 3.62 162 162 162 
2.96 3.28 0.05 61 61 61 
1.4 -1.85 1.36 56 56 56 
3.27 -0.24 1.55 50 50 50 
2.17 -0.48 -0.33 32 32 32 
2.09 -1.32 3.85 16 16 16 
2.66 2.2 4.38 25 25 25 
3.21 0.83 -0.37 50 50 50 
1.89 -0.29 -0.29 35 35 35 
3.86 2.36 3.41 37 37 37 
4.24 1.96 1.72 186 186 186 
2.67 -0.83 1.54 82 82 82 
3.09 3.22 2.17 28 28 28 
3.45 2.88 3.14 49 49 49 
2.03 -1.46 0.91 21 21 21 
1.2 -1.94 3.95 12 12 12 
1.39 -0.57 2.75 7 7 7 
1.44 -1.91 3.13 33 33 33 
4.12 0.49 1.41 67 67 67 
4.04 2.14 0.27 34 34 34 
0.67 -1.68 -0.27 41 41 41 
0.92 -1.9 0.79 42 42 42 
2.53 -1 2.77 17 17 17 
4.18 1.67 0.3 35 35 35 
3.41 2.82 0.62 50 50 50 
3.76 0.11 1.1 57 57 57 
3.31 2.83 4.42 15 15 15 
3.14 -0.55 2.42 87 87 87 
3 0.82 -0.31 49 49 49 
1.57 1.03 2.35 54 54 54 
0.65 1.04 -0.26 21 21 21 
4 0.44 0.81 64 64 64 
1.73 -1.78 3.09 25 25 25 
1.88 0.94 -0.29 30 30 30 
4.03 2.12 0.68 69 69 69 
1.4 1.63 -0.3 29 29 29 
4.67 1.11 -0.15 52 52 52 
1.79 1.81 5.69 10 10 10 
2.34 -1.13 0.4 21 21 21 
4.39 1.73 1.71 198 198 198 
4.2 1.94 -0.12 52 52 52 
2.75 -0.92 0.53 4 4 4 
2.12 1.07 -0.31 58 58 58 
3.6 2.61 2.94 34 34 34 
1.26 -2.01 0.55 25 25 25 
2.42 -1.17 0.97 20 20 20 
4.52 1.25 0.33 53 53 53 
3.45 -0.18 1.81 166 166 166 
2.77 -0.73 -0.29 49 49 49 
3.16 3.06 0.82 103 103 103 
2.44 0.65 -0.3 41 41 41 
3.84 2.15 0.85 21 21 21 
2.51 1.29 -0.35 45 45 45 
4.48 1.62 -0.31 37 37 37 
0.41 -1.52 1.21 4 4 4 
2.61 3.29 0.78 99 99 99 
2.6 3.38 1.74 48 48 48 
1.24 -2.04 2.14 38 38 38 
4.54 1.18 1.57 83 83 83 
3.62 2.6 2.73 52 52 52 
1.59 1.03 2.32 35 35 35 
2.66 3.28 0.33 47 47 47 
3.29 2.9 4.41 18 18 18 
0.92 -1.89 5.4 18 18 18 
2.62 -0.14 -0.32 86 86 86 
3.28 -0.47 3.59 39 39 39 
1.57 -0.74 2.76 8 8 8 
3.27 -0.31 1.42 81 81 81 
2.72 3.54 3.5 81 81 81 
2.43 -1.1 1.48 22 22 22 
1.99 -1.51 2.15 94 94 94 
2.63 3.48 1.73 150 150 150 
1.54 0.49 2.29 18 18 18 
2.76 3.55 5.12 255 255 255 
1.52 0.58 2.08 50 50 50 
1.64 -0.65 2.74 20 20 20 
0.77 -1.76 -0.26 24 24 24 
3.5 -0.02 1.42 54 54 54 
2 -1.46 2.79 13 13 13 
3.69 0.16 1.23 59 59 59 
3.84 2.33 1.03 162 162 162 
2.41 -1.1 2.91 15 15 15 
1.94 0.46 -0.31 49 49 49 
3.8 0.43 -0.36 56 56 56 
3.6 -0.06 1.97 165 165 165 
3.8 2.44 3.44 30 30 30 
2.81 -0.5 -0.19 27 27 27 
0.72 -1.82 1.31 65 65 65 
3.24 2.81 0.72 102 102 102 
3.46 2.41 3.29 26 26 26 
1.27 1.77 5.71 6 6 6 
3.36 2.88 2.23 27 27 27 
2.7 -0.76 1.56 88 88 88 
2.91 3.39 4.29 14 14 14 
1.11 -1.61 -0.3 8 8 8 
3.55 2.76 3.5 24 24 24 
1.97 -0.41 -0.31 38 38 38 
3.7 0.14 0.39 101 101 101 
2.02 1.58 2.98 18 18 18 
3.01 -0.6 1.76 96 96 96 
4.15 2 0.29 70 70 70 
3.88 2.34 2.89 69 69 69 
1.67 2.32 -0.3 35 35 35 
3.36 -0.21 0.54 79 79 79 
3.73 2.49 2.85 42 42 42 
4.69 1.44 1.03 130 130 130 
3.18 3.3 3.47 74 74 74 
0.84 -2.06 1.15 41 41 41 
2.43 2.33 5.62 8 8 8 
2.71 3.35 3.21 255 255 255 
4.17 1.98 1.65 196 196 196 
1.49 -1.83 0.83 5 5 5 
2.55 3.5 1.29 117 117 117 
3.74 2.45 1.58 200 200 200 
1.47 -0.92 -0.29 32 32 32 
2.95 3.35 0.85 129 129 129 
1.48 -1.79 1.76 13 13 13 
0.89 -1.92 5.37 19 19 19 
1.41 -1.17 -0.3 20 20 20 
2.4 -1.13 0.94 25 25 25 
1.48 -1.82 1.08 5 5 5 
2.16 -0.94 -0.34 32 32 32 
3.52 1.14 -0.33 42 42 42 
4.52 1.2 1.64 33 33 33 
2.74 0.13 -0.33 45 45 45 
2.6 -0.13 -0.32 73 73 73 
4.01 0.44 0.32 107 107 107 
2.3 2.29 -0.34 46 46 46 
1.86 -1.63 2.43 33 33 33 
2.74 -0.74 2.07 41 41 41 
3.15 -0.38 0.47 77 77 77 
1.68 -0.04 -0.31 34 34 34 
1.16 1.21 5.74 5 5 5 
1.6 -0.85 4.31 17 17 17 
1.62 -0.63 -0.29 35 35 35 
2.84 2.68 -0.35 27 27 27 
3.15 3.14 0.65 84 84 84 
1.84 1.19 4.36 8 8 8 
3.38 2.47 0.13 72 72 72 
2.85 2.8 -0.33 26 26 26 
3.84 2.34 1.58 199 199 199 
2.49 2.63 -0.35 27 27 27 
2.97 -0.24 -0.33 46 46 46 
2.69 3.44 0.97 116 116 116 
1.78 2.74 -0.34 64 64 64 
1.84 -1.56 -0.23 1 1 1 
2.66 3.43 1.04 120 120 120 
3.45 -0.3 3.16 25 25 25 
3.21 3.06 0.93 133 133 133 
3.06 3.19 0.64 91 91 91 
2.17 0.67 -0.28 40 40 40 
2.56 3.54 0.06 31 31 31 
2.66 3.48 4.91 8 8 8 
4.62 1.52 0.65 121 121 121 
3.09 3.31 2.7 91 91 91 
3.47 2.78 1.16 172 172 172 
1.91 1.11 -0.29 31 31 31 
2.37 -1.16 2.36 11 11 11 
1.72 -1.55 1.78 19 19 19 
3.08 3.52 5.29 19 19 19 
2.81 -0.54 -0.16 31 31 31 
4.44 1.71 0.49 44 44 44 
2.63 3.26 0.55 68 68 68 
4.03 1.32 -0.39 29 29 29 
3.08 3.41 4.06 21 21 21 
1.16 -0.97 5.54 10 10 10 
3.54 0.42 -0.34 50 50 50 
1.57 0.3 1.46 19 19 19 
4.75 1.11 1.46 116 116 116 
3.96 2.27 3.54 39 39 39 
4.01 0.41 0.5 64 64 64 
2.64 -0.76 1.5 122 122 122 
3.97 2.19 1.96 185 185 185 
0.56 -1.66 -0.29 19 19 19 
2.42 3.46 0.28 45 45 45 
2.85 3.46 1.34 120 120 120 
1.59 2.42 5.64 5 5 5 
3.03 3.22 2.05 204 204 204 
4.49 1.65 -0.39 27 27 27 
3.58 1.22 -0.35 48 48 48 
0.85 0.31 2.97 25 25 25 
1.54 0.52 2.67 70 70 70 
4.1 1.17 -0.4 33 33 33 
2.68 3.56 2.88 154 154 154 
1.2 -0.39 2.75 17 17 17 
1.41 -1.26 -0.31 20 20 20 
0.94 -1.84 0.85 39 39 39 
2.05 -1.38 0.75 18 18 18 
1.01 -2.03 5.36 19 19 19 
2.96 -0.73 2.81 16 16 16 
2.04 0.81 -0.28 42 42 42 
1.46 2.3 -0.3 30 30 30 
4.13 1.55 -0.31 69 69 69 
3.64 2.61 2.89 30 30 30 
2.23 -1.24 0.24 24 24 24 
0.11 0.98 2.64 8 8 8 
2.49 -1.02 1.55 18 18 18 
2.61 3.49 0.39 55 55 55 
2.62 2.96 -0.3 23 23 23 
3.16 3.07 3.09 89 89 89 
3.87 0.34 -0.36 87 87 87 
1.5 0.21 3.19 167 167 167 
1.64 -1.67 2.11 136 136 136 
2.19 1.89 2.96 9 9 9 
1.44 0.64 -0.29 32 32 32 
4.67 0.98 1.39 128 128 128 
2.69 3.34 3.14 255 255 255 
2.87 -0.62 2.13 45 45 45 
4.06 0.41 0.8 53 53 53 
0.22 -1.34 1.78 67 67 67 
3.99 1.49 -0.41 25 25 25 
2.73 -0.73 1.06 80 80 80 
2.96 -0.54 1.16 78 78 78 
0.88 1.59 5.42 5 5 5 
2.79 3.09 -0.34 27 27 27 
0.63 1.86 5.48 3 3 3 
3.85 0.33 0.35 105 105 105 
2.69 -0.75 1.18 83 83 83 
2.92 -0.61 2.73 11 11 11 
3.87 1.99 0.05 42 42 42 
2.02 -1.28 1.87 12 12 12 
1.02 -0.93 4.37 21 21 21 
1.51 -0.11 -0.28 32 32 32 
2.05 -1.49 3.07 17 17 17 
1.45 0.25 2.34 23 23 23 
4.3 1.81 -0.17 54 54 54 
2.2 -0.16 4.4 13 13 13 
2.82 -0.84 2.71 23 23 23 
2.13 1.23 -0.32 44 44 44 
1.33 -1.99 1.22 36 36 36 
0.89 -2.05 2.71 5 5 5 
2.93 3.38 4.5 7 7 7 
3.25 3.16 4.17 7 7 7 
3.25 2.94 4.54 11 11 11 
0.66 -1.8 0.12 22 22 22 
2.45 0.49 -0.3 50 50 50 
4.75 1.1 1.82 160 160 160 
2.99 -0.64 1.89 51 51 51 
1.7 -1.61 3.06 35 35 35 
2.97 3.47 5.11 14 14 14 
3.03 -0.03 -0.37 56 56 56 
2.77 -0.74 3.24 42 42 42 
1.26 -1.65 5.76 39 39 39 
1.54 0.5 2.51 21 21 21 
1.66 -0.75 5.7 8 8 8 
3.68 0.11 0.94 60 60 60 
3.44 -0.11 0.09 100 100 100 
3.38 1.46 -0.37 39 39 39 
3 0.88 -0.36 57 57 57 
3.16 3.03 -0.27 71 71 71 
4.49 1.26 0.42 79 79 79 
0.37 -1.51 3.88 20 20 20 
2.96 1.45 -0.33 42 42 42 
3.24 2.98 1.97 227 227 227 
4.21 1.68 0.67 96 96 96 
4.14 0.4 1.8 51 51 51 
3.3 2.93 4.64 9 9 9 
4 1.8 0.71 19 19 19 
0.63 -1.69 0.42 88 88 88 
1.12 1.05 -0.28 32 32 32 
3.87 0.28 1.01 65 65 65 
3.5 2.83 2.97 39 39 39 
2.89 -0.6 0.61 69 69 69 
4.69 1.41 1.57 123 123 123 
3.59 -0.04 1.38 55 55 55 
3.13 2.7 -0.23 73 73 73 
3.68 2.58 2.94 37 37 37 
3.21 -0.37 0.98 72 72 72 
3.47 -0.02 0.31 108 108 108 
3.68 1.03 -0.35 43 43 43 
4.04 2.09 1.77 130 130 130 
2.8 -0.75 0.78 66 66 66 
3.52 -0.07 0.69 65 65 65 
2.22 -0.99 -0.19 9 9 9 
4.62 1.38 -0.3 61 61 61 
2.95 3.43 4.67 7 7 7 
3.8 0.27 -0.31 74 74 74 
2.09 2.1 2.93 12 12 12 
0.42 -1.54 1.29 5 5 5 
2.86 -0.58 1.36 69 69 69 
3.03 -0.54 2.36 10 10 10 
3.33 -0.2 0.02 73 73 73 
3.1 -0.33 5.61 9 9 9 
3.2 3.14 3.18 94 94 94 
1 -1.91 1.72 44 44 44 
3.53 1.62 -0.39 27 27 27 
3.93 2.3 2.11 219 219 219 
2.99 -0.52 0.93 78 78 78 
4.69 1.45 0.34 72 72 72 
1.21 1.66 5.69 7 7 7 
1.4 0.5 3.15 105 105 105 
1.41 0.56 2.7 89 89 89 
2.51 1.12 -0.33 55 55 55 
1.6 -1.89 0.65 4 4 4 
1.37 -1.97 1.04 36 36 36 
2.84 -0.67 1.36 91 91 91 
3.66 0.04 1.58 83 83 83 
1.56 0.4 2.6 24 24 24 
1.58 0.56 3.37 108 108 108 
1.1 0.52 2.96 7 7 7 
1.85 -1.62 1.72 3 3 3 
2.06 -1.33 2.24 11 11 11 
3.2 3 3.94 21 21 21 
4.3 1.37 -0.37 36 36 36 
2.25 -1.1 -0.05 25 25 25 
3.46 2.76 0.99 158 158 158 
4.08 2.11 1.05 156 156 156 
1.55 0.69 2.98 53 53 53 
2.08 1.99 2.97 11 11 11 
3.4 2.83 0.94 159 159 159 
1.58 0.11 3.65 43 43 43 
2.22 1.79 4.57 6 6 6 
2.95 -0.56 1.8 100 100 100 
2.85 -0.56 0.83 80 80 80 
1.02 -1.86 0.73 38 38 38 
3.35 -0.15 -0.21 76 76 76 
2.08 2.99 5.51 7 7 7 
2.09 -1.41 2.13 135 135 135 
3.36 -0.33 2.34 155 155 155 
2.43 -1.01 0.6 26 26 26 
3.37 2.84 0.92 157 157 157 
4.18 0.62 -0.06 57 57 57 
1.02 -0.8 -0.26 23 23 23 
2.56 3.49 2.12 184 184 184 
2 -1.48 2.03 135 135 135 
1.08 -1.95 2.77 4 4 4 
0.9 -1.87 3.85 9 9 9 
1.64 0.86 2.93 22 22 22 
4.53 0.95 -0.18 60 60 60 
3.64 0.51 -0.35 61 61 61 
1.48 0.2 1.82 83 83 83 
2.78 -0.64 1.49 108 108 108 
1.25 0.68 -0.28 30 30 30 
3.47 0.67 -0.36 54 54 54 
3.54 2.65 -0.11 61 61 61 
2.88 -0.67 0.72 62 62 62 
2.61 3.5 1.4 92 92 92 
2.83 -0.64 1.78 88 88 88 
3.45 -0.05 0.51 82 82 82 
2.96 -0.03 -0.33 66 66 66 
3.44 2.77 0.91 159 159 159 
4.35 0.78 0.74 62 62 62 
3.86 2.3 1.45 183 183 183 
3.43 -0.07 0.78 76 76 76 
2.37 -1.01 -0.26 4 4 4 
3.24 2.97 0.25 50 50 50 
1.46 -1.79 1.17 34 34 34 
1.61 2.5 2.16 19 19 19 
4.45 1.73 1.65 193 193 193 
4.11 2.05 0.34 37 37 37 
0.69 2.19 5.24 18 18 18 
2.44 -1.1 0.64 22 22 22 
4.71 1.12 1.72 105 105 105 
1.4 -0.6 4.6 13 13 13 
0.75 -0.85 -0.27 22 22 22 
3.58 2.75 3.31 37 37 37 
1.81 -1.54 2.86 32 32 32 
2.99 -0.56 3.21 26 26 26 
0.87 0.37 2.77 10 10 10 
-0.21 -0.96 2.25 38 38 38 
1.76 -0.75 4.33 20 20 20 
1.26 -1.91 0.74 36 36 36 
4.57 1.51 0.15 63 63 63 
3.56 -0.04 1.75 175 175 175 
4.14 1.73 0.37 44 44 44 
3.91 1.22 -0.38 25 25 25 
1.85 -1.72 -0.35 3 3 3 
4.62 1 1.37 133 133 133 
2.89 3.42 2.32 43 43 43 
2.54 3.5 0.97 110 110 110 
3.46 2.76 1.46 201 201 201 
2.31 0.04 -0.32 43 43 43 
3.25 2.93 4.63 11 11 11 
2.6 3.54 1.51 93 93 93 
1.19 2.1 0.85 77 77 77 
1.8 -1.4 -0.28 19 19 19 
0.84 0.46 2.99 11 11 11 
3.43 -0.12 0.31 107 107 107 
0.41 1.35 0.03 32 32 32 
1.51 -0.52 5.69 13 13 13 
2.03 -1.47 1.41 21 21 21 
1.87 -0.57 3.68 14 14 14 
3.63 0.01 1.7 160 160 160 
1.92 -0.99 2.74 9 9 9 
0.51 -1.54 0.2 6 6 6 
1.21 -2.08 0.77 28 28 28 
2.19 -1.25 4.89 11 11 11 
2.7 3.37 2.95 224 224 224 
3.89 2.3 2.01 209 209 209 
2.26 1.87 4.57 8 8 8 
2.46 -1.09 1.57 24 24 24 
0.91 -1.9 0.78 38 38 38 
2.11 -1.38 0.14 15 15 15 
4.33 1.81 -0.36 36 36 36 
2.35 -1.12 1.79 90 90 90 
0.83 -1.91 1.13 109 109 109 
3.76 2.49 1.98 207 207 207 
3.2 -0.27 0.87 75 75 75 
4.6 1.47 0.97 144 144 144 
3.12 3.21 1.85 215 215 215 
0.37 1.04 3.07 9 9 9 
1.6 0.36 2.96 139 139 139 
3.44 2.25 -0.31 55 55 55 
2.24 -1.08 -0.28 6 6 6 
1.7 -1.6 3.06 33 33 33 
4.01 2.03 0.64 42 42 42 
2.01 -1.48 0.86 18 18 18 
1.83 0.81 -0.31 33 33 33 
1.67 2.34 3.8 255 255 255 
4.75 1.09 1.1 133 133 133 
2.01 1.56 2.97 12 12 12 
3.04 3.21 -0.32 50 50 50 
2.75 1.02 -0.33 68 68 68 
4.45 0.89 0.38 57 57 57 
3.35 2.84 4.25 28 28 28 
1.46 2.14 3.86 91 91 91 
3.13 -0.51 2.14 57 57 57 
3.82 2.42 3.28 47 47 47 
1.4 0.37 2.35 23 23 23 
1.13 0.5 -0.26 25 25 25 
3.66 2.63 3.33 23 23 23 
1.55 -1.72 2.29 77 77 77 
3.2 3 -0.03 66 66 66 
1.7 -1.58 1.92 20 20 20 
2.3 3.3 -0.36 57 57 57 
1.39 0.88 4.32 9 9 9 
3.04 3.16 0.01 67 67 67 
1.19 -2.04 0.7 55 55 55 
2.62 3.27 -0.16 10 10 10 
4.55 1.33 -0.25 61 61 61 
2.15 1.19 -0.3 41 41 41 
3.69 2.14 0.29 23 23 23 
2.95 -0.43 -0.02 29 29 29 
0.8 -2.02 1.2 56 56 56 
3.58 2.59 -0.03 61 61 61 
3.16 3.22 5.48 7 7 7 
1.85 0.46 1.36 13 13 13 
1.64 2.49 5.66 5 5 5 
3.04 3.2 1.13 143 143 143 
2.85 3.42 3.99 64 64 64 
1.88 -1.51 3.95 13 13 13 
3.33 -0.2 0.81 78 78 78 
3.21 2.76 0.51 63 63 63 
3.24 2.76 0.86 69 69 69 
1.47 -1.74 1.02 2 2 2 
3.27 3.07 1.74 214 214 214 
2.57 2.12 4.38 26 26 26 
1.65 2.53 2.83 34 34 34 
3.09 3.27 2.32 45 45 45 
4.43 1.66 0.62 89 89 89 
2.63 -0.9 0.95 8 8 8 
0.88 -1.99 1.08 39 39 39 
2.65 3.51 1.77 162 162 162 
2.41 -0.24 -0.31 56 56 56 
2.93 3.31 0.84 120 120 120 
2.9 3.39 5.34 28 28 28 
2.94 -0.69 3.94 255 255 255 
4.23 1.97 1.78 188 188 188 
2.96 -0.7 2.65 12 12 12 
1 -0.37 -0.27 33 33 33 
0.94 -1.88 3.97 16 16 16 
1.55 -1.77 1.47 11 11 11 
1.47 0.22 2.08 26 26 26 
3.25 3.12 2.96 66 66 66 
1.71 -1.51 -0.33 15 15 15 
1.05 -2 5.36 19 19 19 
3.03 -0.68 3.2 25 25 25 
3.3 -0.25 1.38 93 93 93 
3.18 3.05 1.31 167 167 167 
3.02 -0.54 2.89 13 13 13 
2.35 -0.67 -0.33 32 32 32 
1.23 -0.7 4.59 13 13 13 
1.48 2.33 -0.3 33 33 33 
2.44 2.48 -0.33 35 35 35 
3.5 1.67 -0.39 27 27 27 
2.22 2.53 -0.33 29 29 29 
1.42 0.34 2.01 139 139 139 
3.17 -0.2 -0.11 31 31 31 
3.49 2.34 0.13 44 44 44 
2.85 -0.66 0.89 75 75 75 
2.47 -0.67 -0.33 38 38 38 
3.12 -0.43 3.1 9 9 9 
1.66 0.05 3.65 39 39 39 
2.52 3.49 1.54 151 151 151 
4.24 0.62 1 66 66 66 
1.48 0.79 -0.29 33 33 33 
2.9 3.39 0.02 63 63 63 
4.38 0.84 -0.34 52 52 52 
0.24 -1.31 0.2 53 53 53 
3.01 3.28 1.63 186 186 186 
1.39 -1.8 0.99 41 41 41 
4.08 0.45 1.15 60 60 60 
2.8 -0.9 3.53 44 44 44 
1.84 -1.51 2.98 40 40 40 
4.03 2.14 1.83 197 197 197 
1.49 -1.75 1.09 4 4 4 
3.26 3 3.49 35 35 35 
0.94 -1.99 1.42 39 39 39 
4.21 1.37 -0.36 35 35 35 
0.12 -1.33 3.45 33 33 33 
1.37 2.31 4.8 7 7 7 
3.78 2.38 1.12 160 160 160 
4.31 1.86 1.47 173 173 173 
4.34 1.57 0.81 109 109 109 
2.56 3.52 4.62 10 10 10 
1.49 2.35 4.32 6 6 6 
3.81 2.34 -0.21 52 52 52 
3.71 2.51 1.55 194 194 194 
4.35 0.72 1.55 92 92 92 
4.07 1.33 -0.39 32 32 32 
4.46 1.29 -0.33 23 23 23 
1.14 -2.1 1.65 26 26 26 
3.79 2.42 0.16 30 30 30 
3.65 2.61 3.1 43 43 43 
3.01 3.46 5.23 30 30 30 
0.32 0.86 2.79 8 8 8 
3.87 2.29 1.66 201 201 201 
2.46 -1.07 3.08 20 20 20 
4.67 0.97 1.61 139 139 139 
2.64 3.28 -0.06 41 41 41 
4.37 1.76 1.72 194 194 194 
3.13 -0.6 3.83 182 182 182 
3.71 2.05 -0.36 18 18 18 
1.11 -0.89 -0.29 23 23 23 
3.83 0.26 0.19 104 104 104 
2.39 -1.18 1.62 11 11 11 
2.67 0.79 -0.32 56 56 56 
3.86 1.98 0.01 64 64 64 
3.99 0.39 0.5 76 76 76 
3.38 -0.21 1.14 77 77 77 
1.89 -1.45 2.99 27 27 27 
1.47 -1.83 1.17 7 7 7 
0.9 -2.02 1.74 40 40 40 
1.81 -1.53 2.89 34 34 34 
1.03 -1.82 3.29 34 34 34 
3.34 2.93 4.08 22 22 22 
1.96 0.43 -0.3 50 50 50 
4.09 2.07 0.82 58 58 58 
2.71 2.15 4.27 4 4 4 
1.56 0.7 3.03 44 44 44 
3.42 -0.44 2.96 26 26 26 
3.3 3.06 3.34 36 36 36 
3.32 1.28 -0.34 29 29 29 
3.68 0.29 -0.39 55 55 55 
1.32 -1.89 1.31 42 42 42 
3.08 -0.75 3.93 94 94 94 
1.93 -0.93 2.74 20 20 20 
2.14 -1.3 0.72 20 20 20 
3.53 -0.04 0.87 48 48 48 
4.35 1.79 1.64 187 187 187 
4.55 0.94 1.62 135 135 135 
3.98 2.25 1.97 189 189 189 
0.67 -0.83 -0.27 23 23 23 
1.33 0.47 -0.28 20 20 20 
2.5 -1.03 1.14 30 30 30 
1.14 -2.09 1.29 37 37 37 
0.41 -1.55 2.92 11 11 11 
3.32 2.93 1.56 209 209 209 
2.53 -0.91 0.68 19 19 19 
3.1 3.23 1.38 160 160 160 
1.11 1.21 -0.3 39 39 39 
2.18 2.01 2.89 6 6 6 
4.37 1.79 1.88 197 197 197 
3.18 3.06 0.62 51 51 51 
2.74 -0.85 1.29 46 46 46 
2.25 2.41 -0.33 34 34 34 
3.9 2.35 2.21 26 26 26 
2.86 3.45 1.1 131 131 131 
3.04 3.26 1.53 170 170 170 
3.66 0.13 1.05 61 61 61 
4.46 1.63 0.06 38 38 38 
2.73 3.45 2.06 174 174 174 
1.89 -1.38 2.91 22 22 22 
1.41 -1.91 1.21 35 35 35 
4.6 1.35 -0.34 58 58 58 
2.9 3.45 4 47 47 47 
4.56 1.55 0.89 138 138 138 
2.32 2.17 -0.33 46 46 46 
0.5 -1.56 0.52 37 37 37 
3.26 3.01 1.04 143 143 143 
2.32 3.24 5.47 9 9 9 
1.71 -0.61 4.36 21 21 21 
3.23 -0.39 1.91 58 58 58 
1.01 -1.31 -0.28 33 33 33 
3.23 3.03 1.99 216 216 216 
1.96 -1.42 3.87 10 10 10 
3.66 0.03 1.59 84 84 84 
2.09 -1.39 1.92 110 110 110 
1.69 2.43 2.94 4 4 4 
3.03 3.19 0.62 97 97 97 
0.62 -1.45 -0.28 20 20 20 
0.38 1.05 2.91 12 12 12 
2.94 3.42 4.47 11 11 11 
0.97 -2 3.58 12 12 12 
3.25 3.08 2.19 255 255 255 
1.69 0.53 5.58 12 12 12 
4.02 0.38 1.2 56 56 56 
1.12 -1.65 5.83 255 255 255 
2.77 -0.78 0.9 73 73 73 
2.56 3.32 0.23 47 47 47 
1.91 1.48 -0.32 37 37 37 
3.35 2.96 3.04 39 39 39 
3.99 2.12 -0.19 33 33 33 
4.41 0.75 1.5 96 96 96 
4.32 1.85 0.19 39 39 39 
3.6 2.63 0.73 115 115 115 
2.95 -0.52 0.45 33 33 33 
2.74 -0.86 1.41 43 43 43 
2.23 1.76 2.95 9 9 9 
3.59 1.4 -0.38 32 32 32 
2.7 -0.86 1.18 15 15 15 
2.78 -0.81 2.82 24 24 24 
4.63 1.34 1.56 164 164 164 
3.42 -0.27 3.23 22 22 22 
2.02 -0.31 2.93 27 27 27 
2.92 2.18 -0.35 29 29 29 
1.52 2.19 3.64 255 255 255 
2.74 -0.79 3.16 33 33 33 
2.17 -1.26 -0.15 24 24 24 
0.89 2.34 5.38 1 1 1 
1.4 0.2 2.59 40 40 40 
1.31 1.77 -0.29 29 29 29 
3.24 2.16 -0.33 27 27 27 
2.95 2.32 4.4 8 8 8 
4.48 0.9 0.66 103 103 103 
1.2 -2.18 5.42 12 12 12 
3.04 3.14 -0.05 78 78 78 
3.2 3.06 1.25 163 163 163 
4.4 0.83 0.19 48 48 48 
2.3 3.12 5.66 14 14 14 
1.22 -0.77 -0.27 26 26 26 
3.75 0.23 0.85 66 66 66 
3.33 2.9 4 23 23 23 
0.91 1.57 -0.28 27 27 27 
1.94 1.39 4.29 13 13 13 
1.33 2.03 -0.31 27 27 27 
2.75 -0.73 1.75 94 94 94 
2.75 -0.45 -0.19 33 33 33 
2.49 -1.07 3.19 17 17 17 
2.83 2.25 4.26 7 7 7 
4.44 0.82 0.24 53 53 53 
2.75 1.12 -0.33 51 51 51 
3.04 -0.51 3.02 24 24 24 
1.92 -1.38 2.87 13 13 13 
1.84 -1.63 1.82 12 12 12 
2.84 3.19 -0.33 30 30 30 
3.77 2.49 2.9 51 51 51 
3.49 2.78 1.89 217 217 217 
3.54 2.71 2.14 255 255 255 
1.92 -0.93 -0.32 34 34 34 
2.26 -1.33 3.74 16 16 16 
2.85 -0.63 0.9 77 77 77 
2.56 3.44 5.09 8 8 8 
2.06 -1.45 2.65 18 18 18 
2.2 -0.16 5.47 8 8 8 
1.25 2.3 4.95 9 9 9 
3.13 0.82 -0.33 55 55 55 
2.68 3.51 2.26 43 43 43 
2.79 2.01 -0.33 36 36 36 
2.82 -0.49 -0.31 24 24 24 
4.1 2.09 2.03 192 192 192 
4.34 1.79 0.08 30 30 30 
4.49 1.62 0.51 81 81 81 
1.77 -0.68 -0.3 32 32 32 
1.91 2.36 2.73 11 11 11 
1.27 -1.94 0.24 35 35 35 
2.91 3.45 4.03 186 186 186 
3.04 0.02 -0.35 54 54 54 
3.18 -0.53 3.79 68 68 68 
2.72 -0.64 -0.31 41 41 41 
4.72 1.14 -0.12 41 41 41 
3.97 0.9 -0.35 38 38 38 
3.33 1.32 -0.36 33 33 33 
2.8 -0.62 1.32 75 75 75 
4.15 0.61 0.27 67 67 67 
2.69 3.43 1.32 109 109 109 
4.53 0.94 1.02 133 133 133 
1.91 -1.11 1.75 3 3 3 
3.21 -0.38 0.65 67 67 67 
3.69 0.16 0.3 105 105 105 
2.5 -0.92 0.98 28 28 28 
1.56 0.71 2.93 36 36 36 
3.71 0.84 -0.36 42 42 42 
3.01 -0.53 2.67 77 77 77 
1.08 1.82 -0.28 28 28 28 
3.68 0.1 0.77 77 77 77 
4.24 1.73 0.66 87 87 87 
3.89 2.29 0.2 32 32 32 
3.75 2.52 1.74 191 191 191 
2.61 -0.83 1.06 8 8 8 
2.95 3.34 1.22 152 152 152 
2.87 2.32 4.25 8 8 8 
3.02 -0.63 2.37 11 11 11 
4.37 0.81 -0.13 49 49 49 
4.2 1.67 0.45 74 74 74 
1.76 0.29 -0.3 42 42 42 
0.85 -1.9 0.73 36 36 36 
3.36 2.8 -0.25 28 28 28 
0.84 -1.89 1.2 43 43 43 
1.41 0.4 2.35 32 32 32 
2.29 -1.26 1.45 26 26 26 
1.65 0.08 -0.3 45 45 45 
2.42 -1.11 3.16 22 22 22 
3.8 1.91 -0.34 30 30 30 
1.17 0.46 -0.26 30 30 30 
1.55 0.5 1.44 18 18 18 
1.89 -1.69 -0.29 6 6 6 
1.81 2.29 2.81 19 19 19 
3.58 2.4 3.16 33 33 33 
2.22 2.68 -0.32 22 22 22 
4.68 1.08 0.88 115 115 115 
4.34 1.28 -0.29 93 93 93 
2.06 -1.33 2.31 12 12 12 
3.21 -0.35 1.56 57 57 57 
2.89 -0.73 3.89 254 254 254 
4.34 1.82 1.55 174 174 174 
4.3 1.79 0.1 35 35 35 
2.53 0.24 -0.3 46 46 46 
3.29 3.03 4.27 14 14 14 
2.73 -0.92 4.1 20 20 20 
2.55 3.53 1.74 198 198 198 
4.74 1.44 1.66 170 170 170 
2.54 3.44 5.5 10 10 10 
0.42 -1.46 0.66 5 5 5 
2.74 -0.7 1.08 76 76 76 
1.13 -1.07 -0.3 18 18 18 
2.74 3.31 5.66 12 12 12 
4.54 0.99 -0.16 48 48 48 
0.69 0.52 2.96 9 9 9 
0.32 1.01 2.99 7 7 7 
1.49 2.35 4.83 5 5 5 
3.72 0.08 1.51 64 64 64 
1.7 1.84 -0.32 34 34 34 
0.39 1 -0.26 18 18 18 
0.84 -2.07 2.33 2 2 2 
1.44 0.31 2.72 141 141 141 
2.26 -1.36 3.97 11 11 11 
3.33 2.89 2.91 38 38 38 
4.3 1.89 1.58 180 180 180 
0.83 -1.9 1.34 46 46 46 
4.74 1.44 1.45 133 133 133 
2.36 3.19 5.58 20 20 20 
1.36 -1.87 1.11 44 44 44 
2.88 -0.66 2.79 9 9 9 
3.41 2.79 0.32 83 83 83 
2.23 -0.14 -0.33 60 60 60 
4.23 0.62 1.33 70 70 70 
1.1 2.06 4.84 11 11 11 
2.67 -0.41 -0.3 43 43 43 
4.26 0.97 -0.34 33 33 33 
1.36 0.65 1.99 44 44 44 
2.09 -1.23 2.93 6 6 6 
3.59 2.61 3.04 40 40 40 
3.35 2.81 0.36 74 74 74 
4.54 0.9 0.54 88 88 88 
3.37 -0.35 3.39 39 39 39 
1.49 -0.94 4.49 11 11 11 
3.85 0.65 -0.38 57 57 57 
2.3 -0.85 -0.3 32 32 32 
1.15 -2.03 -0.14 15 15 15 
2.26 3.11 5.68 9 9 9 
2.73 3.45 2.93 108 108 108 
3.74 2.45 2.91 35 35 35 
4.22 1.63 0.41 59 59 59 
3.46 2.73 1.33 184 184 184 
3.06 -0.54 1.24 78 78 78 
0.73 -1.79 -0.29 17 17 17 
1.58 0.41 2.93 109 109 109 
3.62 2.66 3.63 25 25 25 
3.87 2.3 1.64 203 203 203 
3.42 2.79 1.33 175 175 175 
2.52 1.89 -0.32 43 43 43 
4.69 1.15 -0.21 29 29 29 
4.17 0.57 1.09 68 68 68 
1.56 0.73 2.65 36 36 36 
2.09 0.58 -0.32 37 37 37 
4.59 0.92 1.71 150 150 150 
3.71 0.07 1.58 92 92 92 
1.38 -1.92 0.71 36 36 36 
2.12 -1.42 2.9 17 17 17 
2.22 0.18 -0.31 43 43 43 
3.7 2.48 1.27 171 171 171 
2.69 0.32 -0.32 47 47 47 
2.97 -0.61 3.07 20 20 20 
3.98 2.07 0.66 47 47 47 
1.38 1.6 5.65 8 8 8 
1.41 1.34 -0.27 27 27 27 
1.86 1.36 4.37 11 11 11 
4.74 1.43 1.44 121 121 121 
3.2 3.1 3.71 49 49 49 
4.74 1.43 1.42 107 107 107 
4.63 1.53 0.25 81 81 81 
2.41 3.45 0.17 37 37 37 
2.71 3.43 5.52 18 18 18 
4.53 1.23 0.7 71 71 71 
2.86 -0.6 1.2 80 80 80 
4.69 1.12 0.62 91 91 91 
4.67 1.01 1.35 120 120 120 
2.47 3.43 0.09 29 29 29 
0.7 -1.45 -0.3 19 19 19 
1.93 0.92 5.43 105 105 105 
1.09 -0.2 2.77 15 15 15 
3.4 0.69 -0.36 57 57 57 
4.3 1.87 1.83 195 195 195 
0.78 -1.99 2.18 7 7 7 
2.62 3.27 1.01 126 126 126 
1.67 -0.67 -0.31 45 45 45 
1.95 -0.15 2.85 33 33 33 
2.83 -0.72 0.63 62 62 62 
2.63 0.18 -0.34 43 43 43 
3.22 0.13 -0.35 72 72 72 
1.4 2.5 4.86 4 4 4 
2.93 0.8 -0.33 61 61 61 
4.05 0.44 1.73 68 68 68 
4.69 1.49 1.59 196 196 196 
2.56 2.89 -0.33 26 26 26 
2.73 -0.82 0.72 54 54 54 
4.04 0.43 1.52 68 68 68 
3.83 2.29 0.89 114 114 114 
3.31 2.9 3.02 39 39 39 
4.54 0.93 0.2 67 67 67 
3.22 2.8 0.29 60 60 60 
2.74 -0.34 -0.36 71 71 71 
4.66 1.5 0.23 67 67 67 
2.59 1.67 -0.32 40 40 40 
4.05 1.84 0.77 80 80 80 
1.54 0.62 2.55 55 55 55 
2.64 1.12 -0.32 69 69 69 
3.34 -0.43 2.83 67 67 67 
4.53 1.6 -0.26 51 51 51 
4.13 0.58 0.68 56 56 56 
1.34 -2.01 1.5 34 34 34 
4.09 0.53 0.69 58 58 58 
2.6 -0.91 1.13 6 6 6 
2.91 3.33 -0.28 55 55 55 
3.18 3.22 3.31 106 106 106 
2.47 -0.93 0.89 29 29 29 
1.86 -1.43 1.96 137 137 137 
3.13 3.16 5.39 6 6 6 
0.92 -1.95 1.43 40 40 40 
3.66 0.14 0.89 73 73 73 
4.62 1.31 0.81 104 104 104 
2.66 -0.93 3.76 35 35 35 
2.16 -1.21 2.04 15 15 15 
3.63 2.63 1.65 204 204 204 
2.52 -1.02 2.89 26 26 26 
2.25 -0.79 -0.3 39 39 39 
2.57 -0.99 3.13 59 59 59 
1.96 2.28 2.93 8 8 8 
2.72 1.71 -0.35 44 44 44 
1.41 0.62 2.88 64 64 64 
1.29 -1.99 0.62 33 33 33 
2.11 2.94 5.42 13 13 13 
1.93 -1.63 3.47 10 10 10 
4.53 1.56 1.52 187 187 187 
3.91 2.01 0.12 63 63 63 
1.25 -0.27 2.77 6 6 6 
4.41 1.3 -0.29 20 20 20 
2.06 -1.07 -0.3 37 37 37 
4.1 0.54 0.61 68 68 68 
4.74 1.24 0.58 60 60 60 
2.92 -0.65 0.65 66 66 66 
1.97 -1.47 0.54 18 18 18 
4.46 1.25 0.18 69 69 69 
1.83 0.02 3.12 153 153 153 
2.71 3.29 4.24 126 126 126 
1.25 -2.03 1.23 32 32 32 
2.14 -1.49 4.49 9 9 9 
1.52 0.79 3.22 22 22 22 
0.89 -1.94 0.84 39 39 39 
3.61 0.09 0.66 66 66 66 
3.69 2.18 0.68 44 44 44 
4.22 0.6 1.01 78 78 78 
1.33 -1.91 1.23 37 37 37 
4.28 1.41 -0.27 19 19 19 
3.97 2.27 2.99 122 122 122 
1.42 1.13 2.71 7 7 7 
0.56 0.46 2.78 13 13 13 
2.57 -0.91 -0.24 32 32 32 
2.55 -0.87 1.27 5 5 5 
1.63 1.24 5.57 16 16 16 
1.92 1.38 2.93 8 8 8 
1.86 1.87 -0.32 42 42 42 
4.17 0.63 0.52 51 51 51 
1.25 -0.76 4.38 19 19 19 
3.03 3.31 2.13 155 155 155 
3.6 2.58 -0.24 51 51 51 
3.37 -0.16 1.17 90 90 90 
2.57 3.54 1.27 109 109 109 
1.1 -0.28 2.97 14 14 14 
-0.1 0.9 2.99 64 64 64 
1.82 -1.55 1.24 19 19 19 
2.71 -0.88 0.48 6 6 6 
1.62 -1.81 -0.3 5 5 5 
0.7 -1.93 1.92 51 51 51 
4.55 0.95 0.76 103 103 103 
2.83 -0.64 1.22 84 84 84 
1.42 -1.08 -0.29 21 21 21 
1.39 0.55 2.83 78 78 78 
3.01 -0.55 0.71 70 70 70 
2.8 -0.96 3.83 25 25 25 
1.22 1.36 -0.3 33 33 33 
1.18 -2.11 1.03 23 23 23 
4.15 1.05 -0.4 33 33 33 
2.98 3.31 1.34 162 162 162 
4.65 1.48 1.82 205 205 205 
4.71 1.42 1.4 101 101 101 
1.2 -1.71 5.93 58 58 58 
1.75 -0.46 3.68 15 15 15 
1.99 -1.36 3.57 9 9 9 
1.55 0.57 2.87 66 66 66 
4.5 1.29 -0.03 63 63 63 
2.65 -0.89 1.56 5 5 5 
3.16 3.17 2.7 119 119 119 
1.33 1.57 -0.29 30 30 30 
2.28 3.27 0.53 67 67 67 
0.89 1.57 -0.28 29 29 29 
4.13 0.55 0.76 61 61 61 
0.82 -1.94 2.06 48 48 48 
0.42 -1.51 3.91 16 16 16 
2.74 -0.78 0.95 78 78 78 
3.19 2.59 -0.31 43 43 43 
2.46 3.45 -0.03 36 36 36 
3.56 1.17 -0.35 38 38 38 
3.47 2.8 2.98 38 38 38 
3.98 0.91 -0.37 35 35 35 
4.06 1.7 0.02 50 50 50 
4.63 1.47 -0.05 53 53 53 
3.18 3.07 3.11 86 86 86 
1.53 0.72 1.98 36 36 36 
2.86 -0.89 3.31 38 38 38 
1.52 0.22 3.04 117 117 117 
4.03 0.44 0.19 94 94 94 
2.69 -0.83 0.87 21 21 21 
2.75 -0.49 -0.35 46 46 46 
2.95 -0.51 0.9 62 62 62 
2.06 2.01 2.85 16 16 16 
2.83 -0.64 1.27 81 81 81 
2.04 -1.48 2.61 17 17 17 
3.86 1.03 -0.37 36 36 36 
2.35 0.77 -0.32 44 44 44 
2.37 -1.14 0.71 21 21 21 
3.87 2.39 3.16 56 56 56 
3.48 -0.04 1.23 59 59 59 
1.38 1.88 -0.32 30 30 30 
2.35 1.99 4.49 7 7 7 
1.54 0.61 2.56 50 50 50 
4.58 1.33 0.65 101 101 101 
1.22 -2.19 5.33 26 26 26 
3.15 3.23 4.33 17 17 17 
1.43 -1.92 0.99 35 35 35 
1.24 1.55 -0.28 29 29 29 
3.53 2.39 3.18 40 40 40 
1.27 1.69 -0.27 26 26 26 
2.72 2.63 5.47 5 5 5 
1.32 -1.96 1.98 45 45 45 
3.02 3.34 3.46 117 117 117 
3.02 2.92 0.48 75 75 75 
2.79 -0.64 0.56 67 67 67 
3.17 3.16 1.96 196 196 196 
3.35 -0.18 0.92 79 79 79 
2.52 -0.97 -0.09 8 8 8 
1.7 -0.8 5.71 10 10 10 
2.11 3.07 1.19 91 91 91 
3.13 -0.67 3.87 255 255 255 
2.58 -0.96 1.53 30 30 30 
1.38 1.68 -0.27 23 23 23 
2.82 -0.92 3.29 29 29 29 
0.8 1.56 -0.28 26 26 26 
2.9 3.44 5.15 33 33 33 
1.45 -0.89 4.55 8 8 8 
4.51 1.23 1.3 139 139 139 
2.7 1.83 -0.34 36 36 36 
2.99 -0.58 0.88 77 77 77 
3.55 2.64 0.76 126 126 126 
4.36 1.15 -0.41 35 35 35 
2.14 3.04 5.5 7 7 7 
3.33 1.83 -0.36 27 27 27 
1.78 0.06 -0.31 46 46 46 
3.91 0.89 -0.34 50 50 50 
2.9 -0.55 1.18 83 83 83 
3.87 2.01 0.42 53 53 53 
2.54 -0.99 3.01 29 29 29 
2.87 3.37 1.43 164 164 164 
2.67 3.51 2.5 224 224 224 
4.2 0.48 1.82 145 145 145 
3.32 -0.28 1.1 79 79 79 
3.48 -0.25 3.17 22 22 22 
1.82 -1.5 0.9 17 17 17 
3.39 2.77 4.38 11 11 11 
3.48 -0.04 0.81 71 71 71 
4.08 2.12 1.22 168 168 168 
2.87 -0.8 3.59 65 65 65 
1.42 0.58 3.02 69 69 69 
0.43 -1.59 1.25 46 46 46 
0.4 1.26 -0.27 20 20 20 
3.78 0.26 0.68 66 66 66 
1.67 1.02 4.39 6 6 6 
1.65 2.48 2.64 14 14 14 
0.77 0.66 2.77 8 8 8 
2.24 1.95 -0.31 49 49 49 
3.27 3.17 4.79 6 6 6 
4.48 1.62 -0.16 38 38 38 
3.39 2.81 4.35 23 23 23 
3.93 2.28 1.76 202 202 202 
3.98 0.33 1.77 58 58 58 
4.74 1.23 0.35 42 42 42 
3.84 2.28 0.32 64 64 64 
2.6 -0.72 -0.34 35 35 35 
4.52 1.05 -0.33 73 73 73 
4.16 0.63 -0.31 44 44 44 
2.84 -0.52 0.37 48 48 48 
2.43 2 4.38 23 23 23 
4.48 1.59 0.05 35 35 35 
4.57 1.31 0.86 113 113 113 
1.41 -1.83 0.72 80 80 80 
3.33 2.94 4.04 22 22 22 
2.64 -0.03 -0.35 42 42 42 
4.14 0.49 1.79 159 159 159 
2.56 3.35 0.18 51 51 51 
2.66 3.46 0.23 55 55 55 
1.33 -0.77 4.38 22 22 22 
0.75 1.6 -0.29 24 24 24 
3.64 0.21 -0.37 21 21 21 
0.27 1.21 2.39 4 4 4 
1.55 -1.87 1.01 3 3 3 
1.6 -1.92 0.56 4 4 4 
3.03 -0.69 2.78 8 8 8 
0.82 -2.01 1.15 52 52 52 
3.84 0.26 0.6 73 73 73 
3.42 1.82 -0.35 27 27 27 
1.49 -0.51 5.66 13 13 13 
1.94 2.14 2.87 27 27 27 
1.34 -1.91 0.79 35 35 35 
2.87 -0.67 1.04 82 82 82 
2.15 -1.24 2.49 23 23 23 
1.36 0.21 1.71 83 83 83 
1.55 0.92 2.69 54 54 54 
2.65 -0.84 1.45 13 13 13 
4.05 2.1 1.32 178 178 178 
1.37 0.75 -0.28 40 40 40 
2.29 -1.18 1.06 19 19 19 
2.83 -0.75 3.67 109 109 109 
1.98 0.58 -0.31 40 40 40 
2.15 2.9 5.58 6 6 6 
1.29 -0.34 2.94 11 11 11 
3.23 -0.35 3.68 40 40 40 
1.52 0.33 -0.28 54 54 54 
3.36 -0.38 3.34 16 16 16 
2.02 -1.5 1.28 23 23 23 
4.22 1.29 -0.34 36 36 36 
1.72 1.92 5.75 11 11 11 
3.4 2.55 0.4 65 65 65 
2.84 -0.9 3.69 35 35 35 
3.62 0 1.18 58 58 58 
3.34 2.82 0.34 43 43 43 
2.21 -1.23 0.64 18 18 18 
2.21 -1.19 0.09 18 18 18 
3.93 2.31 2.08 209 209 209 
1.15 1.21 -0.28 71 71 71 
2.68 -0.83 1.29 55 55 55 
3.67 1.62 -0.38 31 31 31 
1.27 1.4 5.69 7 7 7 
2.76 2.1 4.37 4 4 4 
1.4 0.34 1.59 32 32 32 
1.24 -0.76 4.39 20 20 20 
1.53 0.56 2.13 54 54 54 
2.72 -0.93 0.62 12 12 12 
3.34 -0.41 3.4 19 19 19 
4.68 1.05 0.87 123 123 123 
0.24 -1.37 4.22 16 16 16 
2.37 3.21 -0.34 23 23 23 
0.38 1.38 4.9 6 6 6 
1.3 -1.03 -0.29 21 21 21 
4.08 2.14 1.96 191 191 191 
2.9 -0.58 1.54 82 82 82 
3.07 3.19 3.31 122 122 122 
2.23 2.3 5.51 8 8 8 
3.69 0.16 1.85 44 44 44 
3.12 3.15 1.04 142 142 142 
1.02 -0.59 -0.27 26 26 26 
3.59 2.59 1.38 182 182 182 
2.74 -0.65 0.28 51 51 51 
3.13 -0.5 2.09 57 57 57 
1.3 -2.04 1.42 43 43 43 
2.43 -1.01 0.51 25 25 25 
1.25 -2.15 5.31 14 14 14 
1.06 0.51 -0.25 29 29 29 
2.74 -0.71 0.75 68 68 68 
1 0.22 2.94 8 8 8 
4.74 1.22 1.24 134 134 134 
2.97 2.36 4.37 8 8 8 
2.31 2.31 -0.33 42 42 42 
1.72 -0.56 -0.31 35 35 35 
2.91 -0.7 1.87 86 86 86 
3.88 0.29 0.27 98 98 98 
3.39 -0.12 -0.32 76 76 76 
2.97 3.3 2.02 209 209 209 
3.27 2.89 0.31 87 87 87 
0.81 -1.69 -0.31 25 25 25 
1.4 0.59 2.64 60 60 60 
2.82 -0.67 1.05 85 85 85 
4.42 1.11 -0.34 96 96 96 
1.4 -1.86 1.09 44 44 44 
3.64 1.6 -0.35 30 30 30 
3.67 0.06 1.06 61 61 61 
2.77 3.57 5.2 16 16 16 
2.86 1.67 -0.36 44 44 44 
3.54 2.76 3.65 28 28 28 
2.93 3.32 1.12 157 157 157 
1.75 1.27 3.19 6 6 6 
2.04 -0.22 2.85 28 28 28 
1.73 2.47 2.77 37 37 37 
0.81 0.92 -0.26 19 19 19 
3.81 2.47 3.34 35 35 35 
1.11 -0.91 -0.27 23 23 23 
2.4 -1.18 1.52 25 25 25 
3.64 0.05 1.9 36 36 36 
1.61 2.53 2.81 12 12 12 
2.96 0.76 -0.31 65 65 65 
3.48 2.73 0.17 37 37 37 
2.24 0.94 -0.31 58 58 58 
4.5 0.9 0.48 86 86 86 
3.59 -0.05 0.83 67 67 67 
2.39 0.13 -0.33 44 44 44 
2.88 -0.66 1.42 115 115 115 
0.89 -2.01 1.15 42 42 42 
4.19 1.93 -0.06 48 48 48 
1.08 0.68 4.36 8 8 8 
2.32 -0.94 -0.29 28 28 28 
4.36 0.79 -0.25 55 55 55 
2.94 3.45 5.06 15 15 15 
3.25 -0.37 1.57 48 48 48 
2.94 -0.59 0.92 83 83 83 
0.81 -2.02 1.9 54 54 54 
1.14 -2.1 1.97 22 22 22 
2.69 3.54 5.11 14 14 14 
1.27 -1.02 -0.31 22 22 22 
2.97 3.46 4.38 12 12 12 
3.89 2.31 2.15 59 59 59 
2.9 -0.61 1.04 85 85 85 
1.63 -0.7 4.55 10 10 10 
2.06 -1.32 2.8 20 20 20 
0.92 1.55 -0.3 28 28 28 
2.89 2.5 4.26 18 18 18 
2.8 3.31 5.07 255 255 255 
3.23 3 -0.17 59 59 59 
3.96 0.32 1.18 57 57 57 
0.88 -1.96 -0.19 27 27 27 
4.22 1.39 -0.37 34 34 34 
3.22 0.96 -0.33 49 49 49 
3.76 2.42 1.43 183 183 183 
1.94 -0.16 2.96 25 25 25 
3.19 2.75 0.27 41 41 41 
2.99 3.47 4.85 5 5 5 
0.53 -1.6 0.19 41 41 41 
3.52 2.5 0.83 100 100 100 
1.22 -2.19 5.12 11 11 11 
4.11 2.12 1.94 188 188 188 
3.39 -0.1 0.84 75 75 75 
3.8 0.22 0.74 67 67 67 
1.57 -1.73 2.58 142 142 142 
1.97 -1.49 1.89 24 24 24 
1.26 -1.99 1.62 36 36 36 
1.46 0.73 -0.26 33 33 33 
3.08 3.31 4.07 21 21 21 
2.79 -0.91 3.08 31 31 31 
2.91 -0.57 1.21 89 89 89 
4.55 0.93 0.33 75 75 75 
1.31 0.26 3.68 46 46 46 
3.24 3.07 4.02 22 22 22 
0.33 -1.51 3.25 19 19 19 
0.37 -1.42 0.07 58 58 58 
3.21 -0.31 1.59 45 45 45 
4.16 1.68 -0.16 35 35 35 
1.15 -2.02 5.48 13 13 13 
3.26 -0.23 0.45 94 94 94 
4.22 0.56 1.36 69 69 69 
0.12 1.58 5.28 11 11 11 
1.38 0.6 2.15 28 28 28 
2.44 2.21 -0.31 30 30 30 
0.72 -1.89 -0.25 44 44 44 
1.86 -1.61 2.16 24 24 24 
2.9 3.39 1.25 169 169 169 
2.27 -1.31 3.74 15 15 15 
1.49 -1.8 0.56 3 3 3 
2.37 3.27 5.71 14 14 14 
3.06 -0.62 2.39 7 7 7 
1.28 -1.94 1.22 39 39 39 
2.92 3.4 3.21 255 255 255 
3.09 3.25 4.33 14 14 14 
3.13 3.12 -0.18 54 54 54 
3.08 0.18 -0.37 88 88 88 
2.21 -1.36 1.29 22 22 22 
1.33 -1.88 0.1 36 36 36 
0.63 1.86 5.45 3 3 3 
2.87 -0.83 3.14 21 21 21 
3.89 2.29 0.92 121 121 121 
4.3 0.71 0.31 45 45 45 
3.89 2.28 1.49 193 193 193 
4.74 1.22 0.14 40 40 40 
1.48 -1.26 -0.31 18 18 18 
2.52 3.5 1.77 176 176 176 
2.44 2.5 -0.31 36 36 36 
3.15 3.05 0.53 92 92 92 
1.33 -1.88 1 40 40 40 
2.07 2.48 -0.31 35 35 35 
3.25 3.02 1.6 191 191 191 
1.3 -1.07 -0.3 21 21 21 
4.51 1.21 1.3 133 133 133 
3.52 2.73 1.9 194 194 194 
1.33 0.6 -0.27 32 32 32 
4.04 0.83 -0.36 36 36 36 
1.99 2.23 2.72 17 17 17 
1.89 -1.03 2.93 7 7 7 
4.51 1.58 0.29 66 66 66 
2.3 -1.17 1.85 41 41 41 
1.29 -1.93 0.43 38 38 38 
2.93 -0.57 0.58 76 76 76 
3.86 2.42 3.24 55 55 55 
2.08 2.09 5.62 4 4 4 
0.96 -1.92 0.99 40 40 40 
0.94 -1.92 0.58 35 35 35 
2.85 1.01 -0.35 65 65 65 
3.73 2.48 1.84 190 190 190 
3.04 -0.58 1.77 82 82 82 
1.31 -1.91 0.31 77 77 77 
3.14 3.06 0.34 76 76 76 
3.66 2.28 0.55 49 49 49 
2.82 -0.94 3.4 32 32 32 
3.28 2.93 0.16 43 43 43 
2.81 -0.66 1.23 82 82 82 
3.58 -0.09 1.79 207 207 207 
2.48 1.31 -0.33 50 50 50 
0.73 -1.76 3.41 12 12 12 
4.18 1.68 0.27 49 49 49 
2.96 -0.55 0.31 32 32 32 
2.52 -0.87 1.11 19 19 19 
3.58 2.63 1.08 166 166 166 
0.99 -1.98 3.51 30 30 30 
0.27 1.21 2.45 4 4 4 
2.13 -1.29 -0.2 12 12 12 
2.31 -1.25 0.85 20 20 20 
1.39 0.56 2.64 64 64 64 
4.25 1.87 1.05 160 160 160 
4.69 1.04 1.44 142 142 142 
4.51 0.96 0.22 66 66 66 
3.88 0.24 1.05 57 57 57 
1.57 -0.58 5.69 15 15 15 
4.14 2.04 1.89 189 189 189 
2.84 -0.65 1.67 94 94 94 
2.82 -0.64 1.42 81 81 81 
2.95 -0.56 2.68 7 7 7 
3.18 -0.36 1.27 79 79 79 
3.51 0 -0.26 100 100 100 
3.15 2.81 4.26 18 18 18 
3.72 2.52 3.49 27 27 27 
3.2 3.08 1.07 154 154 154 
2.3 -0.96 0.04 21 21 21 
4.72 1.4 1.7 142 142 142 
2.66 -0.86 2.93 21 21 21 
1.24 -2.01 1.86 34 34 34 
3.57 2.34 0.91 70 70 70 
1.35 0.51 3.46 35 35 35 
2.3 -1.03 -0.33 5 5 5 
1.28 -2.06 3.85 15 15 15 
0.63 -1.13 -0.26 20 20 20 
1.98 2.2 2.71 14 14 14 
1.92 -0.13 2.97 10 10 10 
1.93 1.95 -0.31 54 54 54 
3.6 2.57 3.02 45 45 45 
4.41 1.75 1.32 164 164 164 
2.29 2.38 5.5 3 3 3 
1.8 -1.52 2.79 23 23 23 
2.35 -0.02 -0.34 51 51 51 
4.53 1.63 0.91 135 135 135 
2.71 3.19 5.14 255 255 255 
0.36 1.05 2.87 11 11 11 
2.82 2.8 -0.33 26 26 26 
